264.577289682 190.437685956 -16.5810570944 -0.00832408770607 -0.00192661356603 0.999963498196 
264.577289682 196.437685956 -16.5708693786 -0.00825006714875 -0.00151691836084 0.999964817056 
264.577289682 202.437685956 -16.5628000965 -0.00780282113213 -0.00117275247072 0.999968869832 
264.577289682 208.437685956 -16.5568563568 -0.00699307409159 -0.000623152834704 0.999975353994 
264.577289682 214.437685956 -16.5598822885 -0.00598676754488 0.00155577009659 0.999980868914 
264.577289682 220.437685956 -16.5747527011 -0.00490987448374 0.00334614314559 0.999982348074 
264.577289682 226.437685956 -16.5993338969 -0.00378022340294 0.00463293743038 0.999982122741 
264.577289682 232.437685956 -16.6282196177 -0.00280323000802 0.00500611984986 0.999983540197 
264.577289682 238.437685956 -16.6595568464 -0.00211148609578 0.00545387252463 0.999982898304 
264.577289682 244.437685956 -16.6931169441 -0.00174317293017 0.00518859122036 0.999985019822 
264.577289682 250.437685956 -16.7181162968 -0.00140933528012 0.00314442994678 0.99999406315 
264.577289682 256.437685956 -16.7308503275 -0.00100161001353 0.00110022706446 0.999998893138 
264.577289682 262.437685956 -16.7343434023 -0.000501341539241 0.000542106172982 0.999999727389 
264.577289682 268.437685956 -16.7380354655 0.000149707404671 0.000688581249987 0.999999751722 
264.577289682 274.437685956 -16.7426027758 0.000955094668724 0.000809682525574 0.999999216104 
264.577289682 280.437685956 -16.7462923666 0.00160570633083 0.000420179839419 0.999998622577 
264.577289682 286.437685956 -16.7476449408 0.00184421494333 3.06776239059e-05 0.999998298964 
264.577289682 292.437685956 -16.8458866909 0.00168889463161 0.0788433765801 0.996885585012 
264.577289682 298.437685956 -17.8917725825 0.00131067866734 0.260250676551 0.965540194646 
270.577289682 -295.562314044 44.3374233563 0.287309079768 -0.699676443738 0.654145524147 
270.577289682 -289.562314044 45.3161154532 0.18204981592 0.355821086257 0.916651089073 
270.577289682 -283.562314044 43.0883309626 -0.0237653766803 0.333964762577 0.942285914268 
270.577289682 -277.562314044 41.0630781423 -0.130593111928 0.302734657479 0.944085359635 
270.577289682 -271.562314044 39.2006718183 -0.150626363582 0.291598400124 0.944606834423 
270.577289682 -265.562314044 37.3420805977 -0.154468095348 0.293261194409 0.943470974314 
270.577289682 -259.562314044 35.4706849627 -0.149995605309 0.295301323324 0.943556276451 
270.577289682 -253.562314044 33.4045117052 -0.155802770683 0.34691470565 0.924865224587 
270.577289682 -247.562314044 30.9923563508 -0.192077978621 0.385638636516 0.902434979461 
270.577289682 -241.562314044 28.2957330468 -0.251294906131 0.405489058858 0.878879680786 
270.577289682 -235.562314044 25.7781442368 -0.305103556064 0.334699278467 0.891565035805 
270.577289682 -229.562314044 23.8245262541 -0.315068215336 0.249554108047 0.91567175715 
270.577289682 -223.562314044 22.5413613215 -0.2674319287 0.160615681511 0.950096187954 
270.577289682 -217.562314044 21.5781594704 -0.190102124212 0.147548079473 0.970613592844 
270.577289682 -211.562314044 20.7171781793 -0.110407403935 0.132947666111 0.984954376219 
270.577289682 -205.562314044 19.9866778050 -0.034729112411 0.100451108637 0.994335689556 
270.577289682 -199.562314044 19.5228037482 0.0127915562399 0.0535201346964 0.998484837777 
270.577289682 -193.562314044 19.3434616118 0.0281053163606 0.00617680372087 0.999585883398 
270.577289682 -187.562314044 19.3202555214 0.024861744788 0.00498611780656 0.999678464445 
270.577289682 -181.562314044 19.2827834567 0.0214830336829 0.0075010239816 0.99974107343 
270.577289682 -175.562314044 19.2294258597 0.0180877328694 0.010913808351 0.999776836452 
270.577289682 -169.562314044 19.1472421002 0.0151482437856 0.0164742147798 0.999749534112 
270.577289682 -163.562314044 19.0316857552 0.0128313317786 0.0220332741254 0.999674893031 
270.577289682 -157.562314044 18.2764234623 0.0114800841596 0.315169044941 0.948966111502 
270.577289682 -151.562314044 14.8906080279 0.0125726485546 0.622968730183 0.782145695969 
270.577289682 -145.562314044 8.72140124186 0.015767499064 0.776351126084 0.630103416117 
270.577289682 -139.562314044 2.57488902308 0.039099551004 0.632083205222 0.773913462079 
270.577289682 -133.562314044 -1.07943416717 0.0949321407653 0.370805369095 0.923845910799 
270.577289682 -127.562314044 -2.46224789117 0.170522231907 0.16433585781 0.971553340925 
270.577289682 -121.562314044 -3.59892881458 0.202926226243 0.201008198217 0.958340571484 
270.577289682 -115.562314044 -4.97920110215 0.18831359038 0.238505442332 0.952708321396 
270.577289682 -109.562314044 -6.43731905211 0.138142316979 0.212110016953 0.96743270617 
270.577289682 -103.562314044 -7.59552256451 0.0677809878249 0.164165259347 0.984101369429 
270.577289682 -97.5623140435 -8.44416700718 -0.0221349640151 0.125362985382 0.991863985264 
270.577289682 -91.5623140435 -9.29490993091 -0.074089538949 0.153863469581 0.985310495705 
270.577289682 -85.5623140435 -10.3075439338 -0.0653453468061 0.177384708589 0.981969781006 
270.577289682 -79.5623140435 -11.4437996815 -0.00874420693397 0.18301728984 0.983070806435 
270.577289682 -73.5623140435 -12.4246986041 0.0402350758958 0.13800948605 0.989613318639 
270.577289682 -67.5623140435 -13.0986012972 0.0553649859942 0.0829435909911 0.99501511498 
270.577289682 -61.5623140435 -13.4241335133 0.0326738107213 0.0382882444195 0.998732412827 
270.577289682 -55.5623140435 -13.6372779954 0.0139326685593 0.0326906605629 0.999368401271 
270.577289682 -49.5623140435 -13.8166693652 0.0126475619592 0.0270737064918 0.999553427083 
270.577289682 -43.5623140435 -13.9604453821 0.0222641188842 0.0205890345788 0.999540094576 
270.577289682 -37.5623140435 -14.0635706947 0.0250133793572 0.0137709790112 0.99959226237 
270.577289682 -31.5623140435 -14.1268342393 0.0199123371867 0.0109455118924 0.999741813969 
270.577289682 -25.5623140435 -14.3062486440 0.00812420682307 0.0487966476525 0.998775692757 
270.577289682 -19.5623140435 -14.7131117949 -0.00944997984817 0.0864359740983 0.996212587886 
270.577289682 -13.5623140435 -15.3102929464 -0.0303613347704 0.0971566696423 0.99480589609 
270.577289682 -7.56231404351 -15.8331863243 -0.0375647074639 0.0763558767747 0.996372757975 
270.577289682 -1.56231404351 -16.2298991018 -0.0275914224093 0.0554968512912 0.998077558563 
270.577289682 4.43768595649 -16.5146780828 -0.00783874970944 0.0402804721038 0.99915766402 
270.577289682 10.4376859565 -16.7142937317 0.00760763692222 0.0262143480436 0.999627396492 
270.577289682 16.4376859565 -16.8313333481 0.0183281377924 0.0154692134179 0.999712350029 
270.577289682 22.4376859565 -16.9329726709 0.0221778401914 0.0183984663931 0.999584733696 
270.577289682 28.4376859565 -17.0522066661 0.0181149562395 0.0213301981865 0.999608358811 
270.577289682 34.4376859565 -17.1696631158 0.00818883365978 0.0128439413139 0.999883981357 
270.577289682 40.4376859565 -17.1948847129 0.00196897290417 -0.00443818028791 0.999988212781 
270.577289682 46.4376859565 -17.1164043246 0.000673814850109 -0.0217167690723 0.999763936094 
270.577289682 52.4376859565 -17.0173551409 0.00171736236978 -0.00977466123127 0.999950752119 
270.577289682 58.4376859565 -16.9944235482 0.00188881729473 0.00177064250545 0.999996648592 
270.577289682 64.4376859565 -17.0348438542 0.00132805053333 0.0111987029527 0.999936410645 
270.577289682 70.4376859565 -17.1110039481 0.00070836380095 0.0142719343749 0.999897899843 
270.577289682 76.4376859565 -17.2073220407 0.000597362482512 0.0179457001109 0.999838784508 
270.577289682 82.4376859565 -17.3272065189 0.00109220745092 0.0205562948713 0.999788100461 
270.577289682 88.4376859565 -17.4265149296 0.00173779711221 0.0125411466252 0.999919846639 
270.577289682 94.4376859565 -17.4777123419 0.00222362870313 0.00452359471016 0.999987296202 
270.577289682 100.437685956 -17.4848684029 0.0025183610344 -0.000860021288619 0.999996459104 
270.577289682 106.437685956 -17.4710055977 0.00244537552019 -0.00376087286194 0.999989937936 
270.577289682 112.437685956 -17.4397374744 0.00197696926207 -0.00666163623799 0.999975856806 
270.577289682 118.437685956 -17.3865065730 0.00150318009657 -0.0112807905474 0.99993524001 
270.577289682 124.437685956 -17.3042804785 0.00162584749702 -0.0161250589109 0.999868660923 
270.577289682 130.437685956 -17.1939358157 0.00230792896265 -0.0197092266786 0.999803090537 
270.577289682 136.437685956 -17.0760695845 0.00260708838374 -0.0195718191733 0.99980505449 
270.577289682 142.437685956 -16.9590281915 0.00214130732653 -0.019434446541 0.999808840274 
270.577289682 148.437685956 -16.8474126782 0.00107418778297 -0.0168316580002 0.999857760589 
270.577289682 154.437685956 -16.7587221473 2.76733252621e-05 -0.0127284266084 0.999918989914 
270.577289682 160.437685956 -16.6946591843 -0.000937705040653 -0.00862453861158 0.999962368313 
270.577289682 166.437685956 -16.6468013941 -0.0020716161634 -0.00735375359976 0.999970814931 
270.577289682 172.437685956 -16.6064108302 -0.0036331688664 -0.00610939872894 0.999974737346 
270.577289682 178.437685956 -16.5735213560 -0.00555125859058 -0.00483294557558 0.999972912716 
270.577289682 184.437685956 -16.5485235336 -0.00702324773001 -0.0034994232438 0.99996921354 
270.577289682 190.437685956 -16.5315269842 -0.00782388120042 -0.00216591409839 0.999967047307 
270.577289682 196.437685956 -16.5217135491 -0.00795157930332 -0.0012066631468 0.999967657652 
270.577289682 202.437685956 -16.5169331350 -0.00740215431355 -0.00038675856382 0.999972528887 
270.577289682 208.437685956 -16.5171142271 -0.00618048714762 0.000575378167025 0.999980735074 
270.577289682 214.437685956 -16.5268574400 -0.00490214065219 0.00260162276122 0.999984600169 
270.577289682 220.437685956 -16.5476151139 -0.00394305869181 0.00426652802593 0.999983124371 
270.577289682 226.437685956 -16.5773872693 -0.00324671391748 0.00543710858422 0.999979948148 
270.577289682 232.437685956 -16.6106094764 -0.00270017508647 0.00564260499846 0.99998043484 
270.577289682 238.437685956 -16.6451816400 -0.00227648878825 0.0058891651542 0.999980067468 
270.577289682 244.437685956 -16.6807482450 -0.00198628310737 0.0054957230015 0.999982925708 
270.577289682 250.437685956 -16.7079474763 -0.00161833344307 0.0035705661692 0.999992315998 
270.577289682 256.437685956 -16.7235953683 -0.00109695976895 0.00164536715546 0.999998044721 
270.577289682 262.437685956 -16.7308143524 -0.000413475795309 0.00125443133683 0.99999912772 
270.577289682 268.437685956 -16.7393504643 0.000459231627018 0.00159093601535 0.999998629014 
270.577289682 274.437685956 -16.7498973199 0.00152231263436 0.00186906125084 0.999997094583 
270.577289682 280.437685956 -16.7584218146 0.00238684723289 0.000972428320079 0.999996678666 
270.577289682 286.437685956 -16.7615664985 0.00272906852693 7.57961359578e-05 0.999996273213 
270.577289682 292.437685956 -16.8587258492 0.00256371633929 0.0785189945279 0.996909321281 
270.577289682 298.437685956 -17.9020976926 0.00203662317765 0.259790528371 0.96566284672 
276.577289682 -295.562314044 43.0752598668 -0.0120285044072 -0.759424797237 0.65048389098 
276.577289682 -289.562314044 44.9791728883 -0.0840742123797 0.20882193084 0.974333068315 
276.577289682 -283.562314044 43.5603395793 -0.126873295558 0.2483601845 0.960323063156 
276.577289682 -277.562314044 41.8757149705 -0.125850081595 0.287605742591 0.949444413218 
276.577289682 -271.562314044 39.9730583227 -0.0929096240637 0.304314359682 0.948029837214 
276.577289682 -265.562314044 38.0437565207 -0.0666410420462 0.305910268283 0.949725159862 
276.577289682 -259.562314044 36.1078103810 -0.0507528148583 0.307149981312 0.950306814015 
276.577289682 -253.562314044 34.1197898972 -0.0661115905262 0.320587277396 0.94490901952 
276.577289682 -247.562314044 32.0423719203 -0.128279643396 0.329932034218 0.935248194806 
276.577289682 -241.562314044 29.8914372337 -0.225363797952 0.331326831864 0.916206138955 
276.577289682 -235.562314044 27.7841211587 -0.295272661722 0.307717591868 0.904502039187 
276.577289682 -229.562314044 25.8173485315 -0.292112354307 0.286986326267 0.912309827305 
276.577289682 -223.562314044 24.0199405259 -0.199225373158 0.268353089859 0.942494493275 
276.577289682 -217.562314044 22.3891020993 -0.0718936948687 0.249975361968 0.965579419337 
276.577289682 -211.562314044 20.9133039474 0.0454524314653 0.226729964393 0.972896500004 
276.577289682 -205.562314044 19.6493669788 0.143695415567 0.168878378264 0.975106004955 
276.577289682 -199.562314044 18.8710281945 0.199592723083 0.0842082443823 0.976253920079 
276.577289682 -193.562314044 18.6142890019 0.210141133479 -0.000661655571101 0.977670837364 
276.577289682 -187.562314044 18.6581501045 0.192175654969 -0.00788675073948 0.981328852526 
276.577289682 -181.562314044 18.7093098151 0.167271977564 -0.00888903400937 0.985870716979 
276.577289682 -175.562314044 18.7636211910 0.135900548588 -0.00684874193566 0.990698811762 
276.577289682 -169.562314044 18.7766581136 0.107744701268 0.00255244628524 0.994175318727 
276.577289682 -163.562314044 18.7328123841 0.086457698599 0.0120018587055 0.996183226992 
276.577289682 -157.562314044 18.0112494886 0.0721900058361 0.315397237229 0.946209905785 
276.577289682 -151.562314044 14.5735088596 0.0693887421641 0.629113099255 0.774210508071 
276.577289682 -145.562314044 8.26305458876 0.0790642125418 0.781514839264 0.618856531278 
276.577289682 -139.562314044 1.91088616857 0.128775302903 0.644246309849 0.753898941243 
276.577289682 -133.562314044 -1.99157676203 0.18078757252 0.400813656638 0.898144902716 
276.577289682 -127.562314044 -3.64208384423 0.208746035373 0.19372685721 0.958590109229 
276.577289682 -121.562314044 -4.85556304324 0.19895554268 0.194409231264 0.960532010313 
276.577289682 -115.562314044 -6.07085326589 0.160790004735 0.19607438758 0.967316602211 
276.577289682 -109.562314044 -7.18494479312 0.104528978366 0.155635116927 0.982268498457 
276.577289682 -103.562314044 -7.96306253667 0.0532903540065 0.100275160789 0.993531595018 
276.577289682 -97.5623140435 -8.40462268769 0.00911621082133 0.0636109384981 0.997933135638 
276.577289682 -91.5623140435 -9.02957817957 -0.0131173314996 0.140447884828 0.990001175384 
276.577289682 -85.5623140435 -10.0794316717 -0.00929639820165 0.201874876128 0.979367199455 
276.577289682 -79.5623140435 -11.4622774164 0.0146620010444 0.226252586536 0.973958311639 
276.577289682 -73.5623140435 -12.6527355215 0.034875865466 0.160314144999 0.986449719408 
276.577289682 -67.5623140435 -13.3845437401 0.0395185910498 0.0784011012031 0.996138317851 
276.577289682 -61.5623140435 -13.6029391125 0.026872460265 0.0181211040833 0.999474610216 
276.577289682 -55.5623140435 -13.7436211156 0.0214923762605 0.0287448390242 0.999355698434 
276.577289682 -49.5623140435 -13.9480995682 0.0311176280205 0.0393465123949 0.998740980029 
276.577289682 -43.5623140435 -14.1735298007 0.0486737960559 0.0301523908367 0.998359501835 
276.577289682 -37.5623140435 -14.3040632172 0.0550520945473 0.013287841353 0.998395062166 
276.577289682 -31.5623140435 -14.3344184202 0.0492175111276 0.000814193378172 0.998787752071 
276.577289682 -25.5623140435 -14.4364317997 0.0352189529711 0.0331504352576 0.99882965214 
276.577289682 -19.5623140435 -14.7326897593 0.0159755525153 0.0654145645918 0.997730282422 
276.577289682 -13.5623140435 -15.1994481494 -0.00640746272326 0.0804032418665 0.996741823703 
276.577289682 -7.56231404351 -15.6674984351 -0.0174756192332 0.0751262177466 0.99702088952 
276.577289682 -1.56231404351 -16.1036564989 -0.0143995321675 0.0698569515421 0.997453086513 
276.577289682 4.43768595649 -16.4820506847 -0.00302597045532 0.0542148077325 0.998524710824 
276.577289682 10.4376859565 -16.7540668429 0.00564340845546 0.0363525203914 0.999323094 
276.577289682 16.4376859565 -16.9202698436 0.0113087898869 0.0213302111183 0.999708524203 
276.577289682 22.4376859565 -17.0385268345 0.0129944457781 0.0180780847179 0.999752132897 
276.577289682 28.4376859565 -17.1372606451 0.0102276133051 0.0148262978288 0.999837775251 
276.577289682 34.4376859565 -17.2069429068 0.00423670001369 0.00595493039196 0.999973294232 
276.577289682 40.4376859565 -17.2030815242 0.000763254095924 -0.00724202491909 0.999973484908 
276.577289682 46.4376859565 -17.1200363034 0.000536573509326 -0.0204352521652 0.999791034446 
276.577289682 52.4376859565 -17.0275428652 0.00167838843548 -0.00915576352784 0.999956676565 
276.577289682 58.4376859565 -17.0057796282 0.00189653062878 0.0015668135064 0.999996974129 
276.577289682 64.4376859565 -17.0428539017 0.00134180809272 0.0103263760027 0.999945781285 
276.577289682 70.4376859565 -17.1134021231 9.09475042979e-05 0.0132704563706 0.999911939481 
276.577289682 76.4376859565 -17.2032605242 -0.0019510188849 0.0167898539315 0.99985713696 
276.577289682 82.4376859565 -17.3157087232 -0.00492405814062 0.0193239306709 0.999801149907 
276.577289682 88.4376859565 -17.4093168808 -0.00746988424986 0.0118737767352 0.999901602287 
276.577289682 94.4376859565 -17.4582080657 -0.00872466498368 0.00442190486111 0.999952162345 
276.577289682 100.437685956 -17.4658539627 -0.00885616663922 -0.000782998533032 0.999960476832 
276.577289682 106.437685956 -17.4518943133 -0.00881541971219 -0.00387000762616 0.999953654634 
276.577289682 112.437685956 -17.4194117188 -0.00875172187092 -0.00695690968484 0.999937502433 
276.577289682 118.437685956 -17.3668510461 -0.0080544033244 -0.0106300721257 0.999911060122 
276.577289682 124.437685956 -17.2918126379 -0.00578131341227 -0.0143800576471 0.999879887965 
276.577289682 130.437685956 -17.1947798136 -0.00202673782786 -0.0174571337143 0.999845558482 
276.577289682 136.437685956 -17.0867518506 0.000952994272736 -0.0185462918556 0.99982754856 
276.577289682 142.437685956 -16.9721859247 0.00224375602278 -0.0196353155419 0.999804690898 
276.577289682 148.437685956 -16.8569136046 0.00209230616288 -0.0175997194071 0.999842923729 
276.577289682 154.437685956 -16.7631140466 0.00143615532284 -0.0136627454883 0.999905628969 
276.577289682 160.437685956 -16.6929451849 0.000366389821772 -0.00972512503791 0.999952642729 
276.577289682 166.437685956 -16.6378883084 -0.000899317909904 -0.00865291376187 0.999962158439 
276.577289682 172.437685956 -16.5891055464 -0.0021351006074 -0.00760744194353 0.999968783599 
276.577289682 178.437685956 -16.5468254691 -0.0033471337988 -0.00634945757912 0.99997424021 
276.577289682 184.437685956 -16.5136366401 -0.00460540055719 -0.00471321951652 0.999978287688 
276.577289682 190.437685956 -16.4902656068 -0.00592952113303 -0.00307695390353 0.999977686318 
276.577289682 196.437685956 -16.4770163956 -0.00694704115283 -0.00130161560623 0.999975021896 
276.577289682 202.437685956 -16.4746879772 -0.00667921169581 0.000525496852871 0.99997755574 
276.577289682 208.437685956 -16.4833191970 -0.00508432419413 0.00234074300427 0.999984335162 
276.577289682 214.437685956 -16.5020771309 -0.00335784296571 0.00385885540057 0.999986916977 
276.577289682 220.437685956 -16.5290873276 -0.00223276886943 0.00510623209251 0.999984470448 
276.577289682 226.437685956 -16.5628448165 -0.00160067464395 0.00597247137951 0.99998088353 
276.577289682 232.437685956 -16.5989582305 -0.00118349810731 0.00606782413822 0.999980890239 
276.577289682 238.437685956 -16.6356980477 -0.000884646012342 0.00618223096448 0.999980498521 
276.577289682 244.437685956 -16.6726525172 -0.000712247022422 0.00573380201778 0.99998330797 
276.577289682 250.437685956 -16.7017978507 -0.000431525872238 0.00398118151771 0.999991981957 
276.577289682 256.437685956 -16.7204270785 4.08652129133e-05 0.00222852361467 0.999997516003 
276.577289682 262.437685956 -16.7316230719 0.000683047807894 0.00199068684171 0.999997785303 
276.577289682 268.437685956 -16.7450083874 0.00142673630218 0.00247107051981 0.999995929109 
276.577289682 274.437685956 -16.7612639337 0.00226653906007 0.00286621590906 0.999993323781 
276.577289682 280.437685956 -16.7745010992 0.00297288967066 0.00154614477839 0.999994385666 
276.577289682 286.437685956 -16.7798177752 0.00335466122628 0.00022607059549 0.999994347554 
276.577289682 292.437685956 -16.8766276774 0.0033851767108 0.0782634091768 0.996926967918 
276.577289682 298.437685956 -17.9172935777 0.00285519926378 0.259209761584 0.965816829081 
282.577289682 -295.562314044 44.5593228605 -0.294976149173 -0.727516214051 0.619442676695 
282.577289682 -289.562314044 46.3515832838 -0.338721532361 0.229171001017 0.912550478498 
282.577289682 -283.562314044 44.6737136376 -0.222675554796 0.287097988161 0.931659992964 
282.577289682 -277.562314044 42.6536936203 -0.118247528744 0.340618868917 0.932735926232 
282.577289682 -271.562314044 40.3767059947 -0.0341944952856 0.3512777091 0.935646678817 
282.577289682 -265.562314044 38.1841057839 0.0220298663489 0.334821954992 0.942023855029 
282.577289682 -259.562314044 36.1115661700 0.0493870687212 0.317618142521 0.946931693938 
282.577289682 -253.562314044 34.2441047982 0.0274032626252 0.276645272435 0.960581310685 
282.577289682 -247.562314044 32.6382891944 -0.0595575108062 0.240738398959 0.968761026349 
282.577289682 -241.562314044 31.2474329541 -0.197124659541 0.21369038579 0.956806295768 
282.577289682 -235.562314044 29.6955173185 -0.285506615218 0.272024743324 0.918960560463 
282.577289682 -229.562314044 27.6668045534 -0.266676865112 0.344698480229 0.900036892212 
282.577289682 -223.562314044 25.0779326171 -0.127374063198 0.413496905065 0.901552082537 
282.577289682 -217.562314044 22.4716378536 0.0433929308145 0.379086862468 0.924343120416 
282.577289682 -211.562314044 20.1565541277 0.189771962021 0.333855231291 0.923324042236 
282.577289682 -205.562314044 18.2183111064 0.303832255243 0.241275466407 0.921668112709 
282.577289682 -199.562314044 17.0694331366 0.365934980825 0.111954198098 0.92388194448 
282.577289682 -193.562314044 16.7641746929 0.372740920529 -0.0180219503782 0.927760429997 
282.577289682 -187.562314044 16.9702707495 0.344112999974 -0.0378950391941 0.93816321035 
282.577289682 -181.562314044 17.2467520621 0.30254848354 -0.0492755127072 0.951859411339 
282.577289682 -175.562314044 17.5833084285 0.247902144264 -0.0521401304843 0.967380966147 
282.577289682 -169.562314044 17.8467306201 0.19751481548 -0.0332220500957 0.979736797846 
282.577289682 -163.562314044 17.9902183272 0.158690167719 -0.0137423569054 0.987232788301 
282.577289682 -157.562314044 17.3608971455 0.132088139773 0.313986240865 0.940194322403 
282.577289682 -151.562314044 13.8151060846 0.123501744212 0.641798477481 0.756863285858 
282.577289682 -145.562314044 7.18829865257 0.137156771484 0.791893279514 0.5950571854 
282.577289682 -139.562314044 0.525139978076 0.212460292726 0.649758179639 0.729845827561 
282.577289682 -133.562314044 -3.49491396745 0.263757295303 0.395650577688 0.87971171957 
282.577289682 -127.562314044 -5.07541111950 0.247985595791 0.169915872355 0.953746161514 
282.577289682 -121.562314044 -6.08449565309 0.196140545934 0.153226521296 0.968530081831 
282.577289682 -115.562314044 -6.97387384157 0.132339824359 0.135746934359 0.981865031815 
282.577289682 -109.562314044 -7.71430975512 0.0694830614175 0.104818394012 0.992061091089 
282.577289682 -103.562314044 -8.23917018607 0.0382786427131 0.0690798319991 0.996876482982 
282.577289682 -97.5623140435 -8.55378810898 0.040499158042 0.0516695315225 0.997842711909 
282.577289682 -91.5623140435 -9.13591216211 0.0481732795907 0.137737166115 0.989296622962 
282.577289682 -85.5623140435 -10.1936369350 0.04648425547 0.206378120187 0.977367528365 
282.577289682 -79.5623140435 -11.6244480834 0.0378905087848 0.234073036264 0.971480377073 
282.577289682 -73.5623140435 -12.8489578211 0.0296383168224 0.162774388578 0.986218063411 
282.577289682 -67.5623140435 -13.5746627880 0.0236301698687 0.073678593225 0.997002046122 
282.577289682 -61.5623140435 -13.7467725478 0.0210515691066 0.0125413900472 0.999699727405 
282.577289682 -55.5623140435 -13.8953527885 0.0290388812513 0.0369407419884 0.998895452466 
282.577289682 -49.5623140435 -14.1905516267 0.0495063191962 0.0612273412903 0.99689534909 
282.577289682 -43.5623140435 -14.5454907005 0.0749435685694 0.0454746475254 0.996150349075 
282.577289682 -37.5623140435 -14.7252577959 0.0849408295852 0.0142189525223 0.996284536093 
282.577289682 -31.5623140435 -14.7181612077 0.0783895260875 -0.0118171110983 0.996852766503 
282.577289682 -25.5623140435 -14.7293712803 0.0622576848358 0.015558974597 0.997938825274 
282.577289682 -19.5623140435 -14.9052545349 0.0414356923659 0.0429599141414 0.998217175356 
282.577289682 -13.5623140435 -15.2331520551 0.0176272386363 0.0611499159888 0.997972929609 
282.577289682 -7.56231404351 -15.6228522851 0.00263956912356 0.0684646860587 0.997650048583 
282.577289682 -1.56231404351 -16.0566634997 -0.00122450274737 0.0757593769932 0.997125376967 
282.577289682 4.43768595649 -16.4783127880 0.00178119938167 0.0605429478237 0.998164003958 
282.577289682 10.4376859565 -16.7820605049 0.00368093288626 0.0405612473978 0.999170273748 
282.577289682 16.4376859565 -16.9670783932 0.0042895591979 0.0232922648866 0.999719495698 
282.577289682 22.4376859565 -17.0889446805 0.00380768231686 0.0173205711823 0.999842737319 
282.577289682 28.4376859565 -17.1749579391 0.00233633511085 0.0113470291409 0.999932890982 
282.577289682 34.4376859565 -17.2205048737 0.000283841485572 0.00265139439266 0.999996444765 
282.577289682 40.4376859565 -17.2040440049 -0.000442432749872 -0.0081380898085 0.999966787322 
282.577289682 46.4376859565 -17.1228445525 0.000399325805811 -0.0189247327052 0.999820831465 
282.577289682 52.4376859565 -17.0374966748 0.00163941437253 -0.00846772305949 0.999962804302 
282.577289682 58.4376859565 -17.0171819846 0.00190424382152 0.00138860097145 0.999997222818 
282.577289682 64.4376859565 -17.0509464244 0.00135556555707 0.00940089562576 0.999954891784 
282.577289682 70.4376859565 -17.1120954143 -0.000526493021936 0.0110265501133 0.999939067142 
282.577289682 76.4376859565 -17.1839064689 -0.00449963003699 0.0129699050265 0.999905763006 
282.577289682 82.4376859565 -17.2681060691 -0.0109407593434 0.0141760957088 0.999839656193 
282.577289682 88.4376859565 -17.3368674975 -0.0166762185046 0.00874055738655 0.999822737485 
282.577289682 94.4376859565 -17.3730113535 -0.0196699078913 0.00330518729954 0.999801065443 
282.577289682 100.437685956 -17.3785902027 -0.0202272576267 -0.000801354335296 0.999795086945 
282.577289682 106.437685956 -17.3652156583 -0.0200728773619 -0.00365590170602 0.999791835322 
282.577289682 112.437685956 -17.3347102480 -0.0194774460555 -0.00651043386739 0.999789099433 
282.577289682 118.437685956 -17.2898451360 -0.0176101758274 -0.008320233401 0.999810309721 
282.577289682 124.437685956 -17.2348963836 -0.0131882710723 -0.00999307053905 0.999863094652 
282.577289682 130.437685956 -17.1696112051 -0.00636189362336 -0.0120623936508 0.999907008161 
282.577289682 136.437685956 -17.0875074883 -0.000701197144065 -0.0153025943548 0.99988266258 
282.577289682 142.437685956 -16.9859585235 0.00234626203647 -0.0185420254842 0.999825328918 
282.577289682 148.437685956 -16.8725242966 0.00311042506337 -0.0177303274105 0.999837967246 
282.577289682 154.437685956 -16.7759576377 0.00284459745904 -0.0144541168926 0.999891487498 
282.577289682 160.437685956 -16.6990560704 0.00167044798706 -0.0111774563666 0.999936134997 
282.577289682 166.437685956 -16.6360091708 0.000272959473447 -0.00985508268813 0.999951400238 
282.577289682 172.437685956 -16.5807888231 -0.000637050446584 -0.00855090653457 0.999963237406 
282.577289682 178.437685956 -16.5333547158 -0.00114300001561 -0.00728356722686 0.99997282123 
282.577289682 184.437685956 -16.4932575270 -0.00218749145749 -0.00608183737001 0.99997911285 
282.577289682 190.437685956 -16.4603711429 -0.00403508696417 -0.00488006577834 0.999979951315 
282.577289682 196.437685956 -16.4383469730 -0.00594247597064 -0.0020080063204 0.999980327251 
282.577289682 202.437685956 -16.4367807957 -0.00595625331977 0.00148595874877 0.999981157309 
282.577289682 208.437685956 -16.4561013811 -0.00398812540943 0.00471534729887 0.999980929996 
282.577289682 214.437685956 -16.4865627972 -0.00181352808795 0.00541391093744 0.999983700209 
282.577289682 220.437685956 -16.5208214714 -0.000522472415091 0.00598788152525 0.999981935986 
282.577289682 226.437685956 -16.5581788064 4.53676114654e-05 0.00637644743051 0.999979669223 
282.577289682 232.437685956 -16.5964072277 0.000333179699163 0.00636579678173 0.999979682605 
282.577289682 238.437685956 -16.6345656809 0.000507197335164 0.00635301751795 0.999979690753 
282.577289682 244.437685956 -16.6722011380 0.000561789446521 0.00586550910231 0.999982639947 
282.577289682 250.437685956 -16.7027691243 0.000755279938726 0.00432367618394 0.999990367642 
282.577289682 256.437685956 -16.7240857520 0.00117868716322 0.00278181203748 0.999995436099 
282.577289682 262.437685956 -16.7390109442 0.00177956575343 0.00264521333237 0.999994917983 
282.577289682 268.437685956 -16.7564713696 0.0023942330346 0.00317488990927 0.99999209383 
282.577289682 274.437685956 -16.7770959702 0.00301075810237 0.00360630956626 0.999988964873 
282.577289682 280.437685956 -16.7940966910 0.00355892746837 0.00206054012227 0.999991544069 
282.577289682 286.437685956 -16.8018226608 0.00398024962318 0.000514761583836 0.999991946284 
282.577289682 292.437685956 -16.8994731876 0.00420661423317 0.0781554731763 0.996932307837 
282.577289682 298.437685956 -17.9375727331 0.00367412677099 0.25853610562 0.965994608102 
288.577289682 -295.562314044 45.8023660576 0.40388214647 -0.672324045317 0.620370526259 
288.577289682 -289.562314044 46.7226191651 0.584473942616 0.316200605219 0.747266610831 
288.577289682 -283.562314044 44.1207410847 0.626055856126 0.316522537011 0.712648264275 
288.577289682 -277.562314044 41.3928223572 0.649607741627 0.320651844839 0.689341842934 
288.577289682 -271.562314044 38.6195541470 0.665857755278 0.301537890909 0.68242827468 
288.577289682 -265.562314044 36.1242921829 0.676683992879 0.267458286176 0.685977287479 
288.577289682 -259.562314044 33.9408286372 0.678666186268 0.235127372975 0.695792588415 
288.577289682 -253.562314044 32.2618946561 0.672475847403 0.161804084653 0.722215807671 
288.577289682 -247.562314044 31.2108371343 0.643112002068 0.0981663022121 0.75945396826 
288.577289682 -241.562314044 30.6756285804 0.588477863979 0.0555125053081 0.806605334325 
288.577289682 -235.562314044 29.7561772178 0.526259193692 0.200435270381 0.826363699253 
288.577289682 -229.562314044 27.6969707387 0.490174504863 0.357978144201 0.794720455919 
288.577289682 -223.562314044 24.2945798249 0.498661154152 0.466577190629 0.730508575258 
288.577289682 -217.562314044 20.6925860664 0.557129217439 0.40683008357 0.723944969026 
288.577289682 -211.562314044 17.5510271908 0.602776576076 0.348324998356 0.717864955861 
288.577289682 -205.562314044 14.9785266402 0.644517746127 0.248362183002 0.723127306207 
288.577289682 -199.562314044 13.4983821933 0.671559933113 0.109859718653 0.732760601053 
288.577289682 -193.562314044 13.1794170511 0.674384641531 -0.0321658298912 0.737679276281 
288.577289682 -187.562314044 13.5882585988 0.664596377241 -0.0603949356896 0.744757750615 
288.577289682 -181.562314044 14.1497515249 0.650592006232 -0.0801037965083 0.755190984594 
288.577289682 -175.562314044 14.8459398279 0.632731879633 -0.0876284988629 0.769396916217 
288.577289682 -169.562314044 15.4296062279 0.617261790226 -0.0632568036212 0.784210723672 
288.577289682 -163.562314044 15.8138960424 0.604632638028 -0.0377386330528 0.79560993496 
288.577289682 -157.562314044 15.3242233171 0.573414169274 0.252934475028 0.779243441947 
288.577289682 -151.562314044 11.7456389200 0.466357163076 0.57996124429 0.667949063604 
288.577289682 -145.562314044 4.90825585923 0.354526576259 0.75684607286 0.54908553862 
288.577289682 -139.562314044 -1.91108822782 0.400103606312 0.611098307482 0.68299045587 
288.577289682 -133.562314044 -5.82861407323 0.436966327958 0.342005132743 0.831921220674 
288.577289682 -127.562314044 -7.06718286995 0.418770300513 0.101446773158 0.902407883179 
288.577289682 -121.562314044 -7.67219408854 0.372469001524 0.0825023804375 0.924370164017 
288.577289682 -115.562314044 -8.13821329022 0.323030615421 0.0624080303935 0.944328575891 
288.577289682 -109.562314044 -8.50922583894 0.278348480219 0.0593856047906 0.958642516011 
288.577289682 -103.562314044 -8.88548118493 0.258459340197 0.0611911114038 0.964082163174 
288.577289682 -97.5623140435 -9.2751562914 0.264916378807 0.0722706877005 0.961559285712 
288.577289682 -91.5623140435 -9.93069946688 0.266037536997 0.134651752921 0.954511882767 
288.577289682 -85.5623140435 -10.9447065300 0.248051259641 0.185672307963 0.950787235214 
288.577289682 -79.5623140435 -12.2382862301 0.21604677635 0.20569959993 0.954469205903 
288.577289682 -73.5623140435 -13.3353646932 0.189954875832 0.143979362856 0.971178195914 
288.577289682 -67.5623140435 -13.9903952055 0.175121293367 0.0662813496388 0.982313247035 
288.577289682 -61.5623140435 -14.1594419898 0.173711057888 0.0172161382499 0.984646166372 
288.577289682 -55.5623140435 -14.3667469483 0.178976941146 0.0507160952329 0.982545231642 
288.577289682 -49.5623140435 -14.7788466983 0.188601187103 0.0839027402914 0.978463040894 
288.577289682 -43.5623140435 -15.2705996227 0.200254334518 0.0605995674495 0.977868035029 
288.577289682 -37.5623140435 -15.5036326932 0.204563099889 0.0153725431141 0.978732661702 
288.577289682 -31.5623140435 -15.4607293645 0.200685216582 -0.0238914866781 0.979364406495 
288.577289682 -25.5623140435 -15.3826503834 0.190773931972 -0.00160147219733 0.981632692083 
288.577289682 -19.5623140435 -15.4411521168 0.17578953163 0.0207982992083 0.984208042702 
288.577289682 -13.5623140435 -15.6320523178 0.156729317232 0.0403148065321 0.986818442012 
288.577289682 -7.56231404351 -15.9255469359 0.141225082089 0.0563158178852 0.98837442543 
288.577289682 -1.56231404351 -16.3157909873 0.130863072127 0.0722815926678 0.988761967166 
288.577289682 4.43768595649 -16.7282331895 0.124654503263 0.058623170314 0.990466848874 
288.577289682 10.4376859565 -17.0227879125 0.119877497432 0.0386868654412 0.992034632486 
288.577289682 16.4376859565 -17.1978677057 0.11641094072 0.02148348867 0.992968757109 
288.577289682 22.4376859565 -17.3103539036 0.113835552897 0.0157547092231 0.993374680588 
288.577289682 28.4376859565 -17.3881851301 0.111985376147 0.0100200178191 0.993659335372 
288.577289682 34.4376859565 -17.4277527793 0.110987888618 0.00216633069475 0.993819397874 
288.577289682 40.4376859565 -17.4122067010 0.111422517688 -0.00731578985351 0.993746195852 
288.577289682 46.4376859565 -17.3394108278 0.113360333292 -0.0167921022658 0.99341202939 
288.577289682 52.4376859565 -17.2631733275 0.115400507196 -0.00752417545124 0.993290546478 
288.577289682 58.4376859565 -17.2449033934 0.11587325249 0.00120244979966 0.993263280038 
288.577289682 64.4376859565 -17.2748281054 0.115043300946 0.00822928875769 0.993326390324 
288.577289682 70.4376859565 -17.3233507924 0.112870662093 0.00782768317881 0.993578854955 
288.577289682 76.4376859565 -17.3692090747 0.108992762087 0.00734825573446 0.994015382653 
288.577289682 82.4376859565 -17.4117250863 0.103097426487 0.00649281793167 0.994650071114 
288.577289682 88.4376859565 -17.4433876988 0.0979086715653 0.00400708528559 0.995187336786 
288.577289682 94.4376859565 -17.4600426458 0.0951760283467 0.00151826030326 0.99545930028 
288.577289682 100.437685956 -17.4618669828 0.0946607040143 -0.000857591726856 0.995509224293 
288.577289682 106.437685956 -17.4498623339 0.0949785032924 -0.00312587856504 0.995474415942 
288.577289682 112.437685956 -17.4241859112 0.0959117894888 -0.00539365789752 0.995375224271 
288.577289682 118.437685956 -17.3922467372 0.0979692555275 -0.00487940283098 0.995177479849 
288.577289682 124.437685956 -17.3654773473 0.101930041302 -0.00399911146728 0.99478353112 
288.577289682 130.437685956 -17.3427476511 0.107686505016 -0.0047680742405 0.994173466808 
288.577289682 136.437685956 -17.2969339371 0.112892291829 -0.0104076829344 0.993552721591 
288.577289682 142.437685956 -17.2170450160 0.116606251349 -0.0160421258393 0.993048655578 
288.577289682 148.437685956 -17.1122881384 0.118948222481 -0.0167752182943 0.992758738274 
288.577289682 154.437685956 -17.0176811621 0.120312152686 -0.0145301946568 0.992629769531 
288.577289682 160.437685956 -16.9366311702 0.120731393111 -0.012287095246 0.992609166796 
288.577289682 166.437685956 -16.8678238794 0.120805482261 -0.0104833407985 0.992620841521 
288.577289682 172.437685956 -16.8098957661 0.121157319241 -0.00868332030489 0.992595337458 
288.577289682 178.437685956 -16.7622486330 0.121719761551 -0.00743324632055 0.992536672621 
288.577289682 184.437685956 -16.7181311471 0.121740584143 -0.00716282382001 0.992536107216 
288.577289682 190.437685956 -16.6756483721 0.121009628535 -0.00689303951458 0.992627400291 
288.577289682 196.437685956 -16.6428345021 0.120000952144 -0.00297491985726 0.992769319296 
288.577289682 202.437685956 -16.6408031230 0.119952131997 0.00230270742067 0.992777005963 
288.577289682 208.437685956 -16.6705076378 0.120919218218 0.00703595449909 0.992637415177 
288.577289682 214.437685956 -16.7122380729 0.121863833496 0.00677990401308 0.992523671752 
288.577289682 220.437685956 -16.7525705945 0.122162630265 0.00656994252287 0.992488351379 
288.577289682 226.437685956 -16.7917507320 0.121933276208 0.00640911110128 0.992517606619 
288.577289682 232.437685956 -16.8302026466 0.121509658252 0.00630977995139 0.992570193804 
288.577289682 238.437685956 -16.8679949029 0.121020371014 0.00619056720139 0.992630720196 
288.577289682 244.437685956 -16.9046616252 0.120469548121 0.0056978148833 0.992700671341 
288.577289682 250.437685956 -16.9352406277 0.120113227277 0.00442100514965 0.992750354997 
288.577289682 256.437685956 -16.9581011042 0.120039091677 0.00314395405196 0.99276418752 
288.577289682 262.437685956 -16.9756980664 0.120166341312 0.00306439751742 0.992749041744 
288.577289682 268.437685956 -16.9956943339 0.120244111377 0.00355265478587 0.992737997824 
288.577289682 274.437685956 -17.0186279739 0.120254753257 0.00394442180129 0.992735229483 
288.577289682 280.437685956 -17.0377824038 0.120293910317 0.00239400446154 0.992735434989 
288.577289682 286.437685956 -17.0475662515 0.12043951646 0.000843573451535 0.992720308677 
288.577289682 292.437685956 -17.1439997290 0.118842246836 0.0754113016713 0.990045279746 
288.577289682 298.437685956 -18.1503500628 0.100247658084 0.249717166484 0.963115644049 
294.577289682 -295.562314044 35.7010532706 0.898702492609 -0.287836834281 0.3308833429 
294.577289682 -289.562314044 36.0167408401 0.930541454327 0.150235165404 0.33394909321 
294.577289682 -283.562314044 33.3238557127 0.927594868528 0.152670048187 0.340968644111 
294.577289682 -277.562314044 30.6436937583 0.923756544009 0.155890232363 0.34981721349 
294.577289682 -271.562314044 28.0406681219 0.920838302065 0.147353919368 0.361031361375 
294.577289682 -265.562314044 25.7729032170 0.918774246512 0.129677305863 0.372877567426 
294.577289682 -259.562314044 23.8673742413 0.916416139525 0.11055074804 0.384655678921 
294.577289682 -253.562314044 22.5399474525 0.915873138155 0.062555731157 0.396564213344 
294.577289682 -247.562314044 21.9271709450 0.91347279085 0.0202654971865 0.406394844947 
294.577289682 -241.562314044 21.9015334626 0.909992086097 -0.0078449756146 0.414551395606 
294.577289682 -235.562314044 21.4386226807 0.903046448216 0.0756001048897 0.422837718878 
294.577289682 -229.562314044 19.6785840134 0.884787870464 0.178760933862 0.43034283171 
294.577289682 -223.562314044 16.3890483366 0.855362218982 0.27649105976 0.438073245258 
294.577289682 -217.562314044 12.8400121566 0.850635946967 0.254028163784 0.460313130088 
294.577289682 -211.562314044 9.76673459807 0.846018848803 0.227795324635 0.482038792573 
294.577289682 -205.562314044 7.27248154192 0.846832109526 0.167333892619 0.504851212394 
294.577289682 -199.562314044 5.85474050096 0.850266438728 0.0735544266756 0.521187806351 
294.577289682 -193.562314044 5.57894015559 0.850549738239 -0.025840136061 0.525259393204 
294.577289682 -187.562314044 6.02788155566 0.851125496081 -0.0466940404939 0.522881493748 
294.577289682 -181.562314044 6.64787444990 0.8520834312 -0.0610097138 0.519838091233 
294.577289682 -175.562314044 7.41983825849 0.853774543493 -0.0655332911773 0.516502097412 
294.577289682 -169.562314044 8.07653408861 0.856155767934 -0.0473481104497 0.514543931525 
294.577289682 -163.562314044 8.52407307807 0.857573477754 -0.0293530377438 0.513523251108 
294.577289682 -157.562314044 8.18006558720 0.846282316563 0.138956832616 0.514292950897 
294.577289682 -151.562314044 5.13228172419 0.770171340978 0.381306073727 0.511313782013 
294.577289682 -145.562314044 -0.765880827958 0.62506592063 0.59792580047 0.501774184268 
294.577289682 -139.562314044 -6.61969170243 0.616663427363 0.476197560111 0.626866892647 
294.577289682 -133.562314044 -9.88164493731 0.617332039988 0.244964017286 0.747591989416 
294.577289682 -127.562314044 -10.7508836032 0.606305462394 0.0483893772785 0.793758246847 
294.577289682 -121.562314044 -11.0551244321 0.586493751044 0.0327368672993 0.809291898826 
294.577289682 -115.562314044 -11.2362985792 0.568194765231 0.0164053579041 0.822730559172 
294.577289682 -109.562314044 -11.3679800563 0.552141191635 0.0260446932402 0.833343733674 
294.577289682 -103.562314044 -11.6178554204 0.540148459346 0.0437348890058 0.840432567997 
294.577289682 -97.5623140435 -11.9941376402 0.532411053291 0.0648485029858 0.843998306867 
294.577289682 -91.5623140435 -12.5914121747 0.516887941888 0.102609692354 0.849881230859 
294.577289682 -85.5623140435 -13.4274454729 0.488500395357 0.135203460827 0.862025166638 
294.577289682 -79.5623140435 -14.4485066268 0.449553198445 0.148591229839 0.880807906517 
294.577289682 -73.5623140435 -15.3087992924 0.417238295648 0.105226646309 0.902684639036 
294.577289682 -67.5623140435 -15.8264936604 0.397448938138 0.0494487192349 0.916290983116 
294.577289682 -61.5623140435 -15.9701761464 0.392768939755 0.0162981032452 0.91949275788 
294.577289682 -55.5623140435 -16.1772560985 0.387853909362 0.0472236054452 0.920510334587 
294.577289682 -49.5623140435 -16.5857947267 0.377843722656 0.0783043796826 0.922552191137 
294.577289682 -43.5623140435 -17.0709470910 0.367059079819 0.0563415504737 0.928489774641 
294.577289682 -37.5623140435 -17.2951423547 0.3618263277 0.0130975982348 0.932153507478 
294.577289682 -31.5623140435 -17.2410794567 0.362046983767 -0.0250646490664 0.93182280768 
294.577289682 -25.5623140435 -17.1306691460 0.361977776048 -0.00923278451925 0.932141000781 
294.577289682 -19.5623140435 -17.1222203848 0.356634851934 0.00662237901107 0.934220384322 
294.577289682 -13.5623140435 -17.2162771934 0.34630041297 0.0229564949399 0.937842749781 
294.577289682 -7.56231404351 -17.4167164368 0.333584660299 0.0398744371908 0.94187648005 
294.577289682 -1.56231404351 -17.7242984217 0.318964206502 0.0569451252665 0.946054484519 
294.577289682 4.43768595649 -18.0672580762 0.30486317678 0.0467362197775 0.951248742025 
294.577289682 10.4376859565 -18.3107452018 0.29463457164 0.0305933925683 0.955120156591 
294.577289682 16.4376859565 -18.4530643059 0.288330040052 0.0166282983825 0.957386697054 
294.577289682 22.4376859565 -18.5432515965 0.284133233433 0.0121698395069 0.958707567857 
294.577289682 28.4376859565 -18.6053923765 0.2812023071 0.00769573768642 0.959617652038 
294.577289682 34.4376859565 -18.6367576155 0.279695944832 0.00166633702011 0.960087184461 
294.577289682 40.4376859565 -18.6246042836 0.280298340538 -0.0055546550601 0.959896862219 
294.577289682 46.4376859565 -18.5673169668 0.283089671536 -0.012763493751 0.959008514611 
294.577289682 52.4376859565 -18.5072654246 0.286039545057 -0.00572273406741 0.958200724785 
294.577289682 58.4376859565 -18.4928110668 0.286741329893 0.00089899378507 0.958007620816 
294.577289682 64.4376859565 -18.5162620392 0.285579163094 0.00619449740305 0.958335103087 
294.577289682 70.4376859565 -18.5510138917 0.28348951872 0.0048728891709 0.958962954304 
294.577289682 76.4376859565 -18.5767005039 0.281043302104 0.00329043227524 0.959689447372 
294.577289682 82.4376859565 -18.5915188352 0.278180869626 0.00157185639524 0.960527424409 
294.577289682 88.4376859565 -18.5994563937 0.275840340263 0.000970239704463 0.961202978209 
294.577289682 94.4376859565 -18.6036316529 0.274607214574 0.000367652640543 0.96155641672 
294.577289682 100.437685956 -18.6032455695 0.274416564595 -0.000732771580589 0.961610634364 
294.577289682 106.437685956 -18.5937778581 0.274880932375 -0.00230165564433 0.961475519916 
294.577289682 112.437685956 -18.5745190266 0.275938636891 -0.00386940252349 0.961167465323 
294.577289682 118.437685956 -18.5540644764 0.277485423973 -0.00232096793964 0.960727043749 
294.577289682 124.437685956 -18.5456773912 0.279352874982 -0.000364727323868 0.960188438908 
294.577289682 130.437685956 -18.5479585060 0.281549528378 -0.000369148874389 0.959546625652 
294.577289682 136.437685956 -18.5275389835 0.284330170247 -0.00615661830989 0.958706654999 
294.577289682 142.437685956 -18.4708969571 0.287791406945 -0.0119308574024 0.957618797189 
294.577289682 148.437685956 -18.3866535401 0.291682847534 -0.0132695571992 0.95642304202 
294.577289682 154.437685956 -18.3075973382 0.295002435151 -0.011921677814 0.955422124955 
294.577289682 160.437685956 -18.2369185381 0.297648400081 -0.0105787626002 0.954616949206 
294.577289682 166.437685956 -18.1758076822 0.299819466824 -0.008857369302 0.953954838723 
294.577289682 172.437685956 -18.1254999173 0.301716705407 -0.00713537237684 0.953370922642 
294.577289682 178.437685956 -18.0851990715 0.303342160064 -0.00611900143238 0.952862052843 
294.577289682 184.437685956 -18.0459165433 0.304716919578 -0.00635500424161 0.952421762059 
294.577289682 190.437685956 -18.0051294491 0.305850120364 -0.00659130814644 0.952056856774 
294.577289682 196.437685956 -17.9718677985 0.306618249919 -0.00289666315054 0.951828166299 
294.577289682 202.437685956 -17.9698621464 0.306669359965 0.00226028275762 0.951813424354 
294.577289682 208.437685956 -18.0001868210 0.30598624718 0.00684214304173 0.952011345319 
294.577289682 214.437685956 -18.0411430558 0.30493105021 0.00618018608233 0.952354377276 
294.577289682 220.437685956 -18.0783069194 0.303755140489 0.00563648992334 0.952733459373 
294.577289682 226.437685956 -18.1123605223 0.302480103268 0.00524453433872 0.953141270739 
294.577289682 232.437685956 -18.1449988880 0.30117660516 0.00512383697732 0.953554612384 
294.577289682 238.437685956 -18.1767900804 0.299875424555 0.00497843264579 0.953965379328 
294.577289682 244.437685956 -18.2073338679 0.298592442287 0.00457527832361 0.954369750274 
294.577289682 250.437685956 -18.2332109352 0.297547881724 0.00365808341641 0.954699888189 
294.577289682 256.437685956 -18.2533137633 0.296815059678 0.00273996909082 0.954931051395 
294.577289682 262.437685956 -18.2695157852 0.296296830081 0.00270049426773 0.95509208761 
294.577289682 268.437685956 -18.2876645421 0.295690360202 0.00307801895626 0.95527887901 
294.577289682 274.437685956 -18.3081696213 0.294974482755 0.00337809937634 0.955499159062 
294.577289682 280.437685956 -18.3254120360 0.294384959952 0.00211401503891 0.955684585151 
294.577289682 286.437685956 -18.3347141328 0.294115670805 0.00084935056069 0.955769454832 
294.577289682 292.437685956 -18.4158012921 0.29023302636 0.0605493098869 0.955038518324 
294.577289682 298.437685956 -19.2522305637 0.249188055898 0.203936981695 0.946739151137 
