87.9548336930 -233.469690646 2.52876687215 0 0 1 
87.9548336930 -227.469690646 3.05091350569 0 0 1 
87.9548336930 -221.469690646 5.5334706454 0 0 1 
87.9548336930 -215.469690646 7.89678708477 0 0 1 
87.9548336930 -209.469690646 9.54728185789 0 0 1 
87.9548336930 -203.469690646 10.4849549648 0 0 1 
87.9548336930 -197.469690646 10.7182531052 0 0 1 
87.9548336930 -191.469690646 10.3779917926 0 0 1 
87.9548336930 -185.469690646 9.50884130326 0 0 1 
87.9548336930 -179.469690646 8.11080163734 0 0 1 
87.9548336930 -173.469690646 6.20958224262 0 0 1 
87.9548336930 -167.469690646 4.36590758711 0 0 1 
87.9548336930 -161.469690646 2.80823639510 0 0 1 
87.9548336930 -155.469690646 1.53656866659 0 0 1 
87.9548336930 -149.469690646 0.546682286604 0 0 1 
87.9548336930 -143.469690646 -0.301605567498 0 0 1 
87.9548336930 -137.469690646 -1.07641781876 0 0 1 
87.9548336930 -131.469690646 -1.77775446719 0 0 1 
87.9548336930 -125.469690646 -2.40597575919 0 0 1 
87.9548336930 -119.469690646 -2.98181337815 0 0 1 
87.9548336930 -113.469690646 -3.51730799180 0 0 1 
87.9548336930 -107.469690646 -4.01245960013 0 0 1 
87.9548336930 -101.469690646 -4.46848785774 0 0 1 
87.9548336930 -95.4696906465 -5.04192308592 0 0 1 
87.9548336930 -89.4696906465 -5.84192245976 0 0 1 
87.9548336930 -83.4696906465 -6.86848597925 0 0 1 
87.9548336930 -77.4696906465 -8.12112198316 0 0 1 
87.9548336930 -71.4696906465 -9.32126910527 0 0 1 
87.9548336930 -65.4696906465 -10.2338597133 0 0 1 
87.9548336930 -59.4696906465 -10.8588938073 0 0 1 
87.9548336930 -53.4696906465 -11.1963713872 0 0 1 
87.9548336930 -47.4696906465 -11.4118124911 0 0 1 
87.9548336930 -41.4696906465 -11.6761762908 0 0 1 
87.9548336930 -35.4696906465 -11.9894739115 0 0 1 
87.9548336930 -29.4696906465 -12.3517053533 0 0 1 
87.9548336930 -23.4696906465 -12.7100298471 0 0 1 
87.9548336930 -17.4696906465 -12.9979007886 0 0 1 
87.9548336930 -11.4696906465 -13.2151029139 0 0 1 
87.9548336930 -5.46969064648 -13.3616362229 0 0 1 
87.9548336930 0.53030935352 -13.4710352044 0 0 1 
87.9548336930 6.53030935352 -13.5942612464 0 0 1 
87.9548336930 12.5303093535 -13.7318463348 0 0 1 
87.9548336930 18.5303093535 -13.8837904696 0 0 1 
87.9548336930 24.5303093535 -14.0212479741 0 0 1 
87.9548336930 30.5303093535 -14.0916775167 0 0 1 
87.9548336930 36.5303093535 -14.0939734145 0 0 1 
87.9548336930 42.5303093535 -14.0281356674 0 0 1 
87.9548336930 48.5303093535 -13.9325269581 0 0 1 
87.9548336930 54.5303093535 -13.8905837011 0 0 1 
87.9548336930 60.5303093535 -13.9052038844 0 0 1 
87.9548336930 66.5303093535 -13.9763875079 0 0 1 
87.9548336930 72.5303093535 -14.0895411764 0 0 1 
87.9548336930 78.5303093535 -14.2068133005 0 0 1 
87.9548336930 84.5303093535 -14.3262584972 0 0 1 
87.9548336930 90.5303093535 -14.4478767663 0 0 1 
87.9548336930 96.5303093535 -14.5647679532 0 0 1 
87.9548336930 102.530309354 -14.6555650963 0 0 1 
87.9548336930 108.530309354 -14.7187496041 0 0 1 
87.9548336930 114.530309354 -14.7543214766 0 0 1 
87.9548336930 120.530309354 -14.7602001244 0 0 1 
87.9548336930 126.530309354 -14.7286672392 0 0 1 
87.9548336930 132.530309354 -14.6589978217 0 0 1 
87.9548336930 138.530309354 -14.5511918719 0 0 1 
87.9548336930 144.530309354 -14.4414725605 0 0 1 
87.9548336930 150.530309354 -14.4917844970 0 0 1 
87.9548336930 156.530309354 -14.7216041536 0 0 1 
87.9548336930 162.530309354 -15.1309315303 0 0 1 
87.9548336930 168.530309354 -15.6900669772 0 0 1 
87.9548336930 174.530309354 -16.2375644545 0 0 1 
87.9548336930 180.530309354 -16.7491275806 0 0 1 
87.9548336930 186.530309354 -17.2247563556 0 0 1 
87.9548336930 192.530309354 -17.6642488785 0 0 1 
87.9548336930 198.530309354 -18.0662540181 0 0 1 
87.9548336930 204.530309354 -18.4305215729 0 0 1 
87.9548336930 210.530309354 -18.7570515431 0 0 1 
87.9548336930 216.530309354 -19.0085846605 0 0 1 
87.9548336930 222.530309354 -18.8729126536 0 0 1 
87.9548336930 228.530309354 -18.2797633800 0 0 1 
87.9548336930 234.530309354 -17.2291368397 0 0 1 
87.9548336930 240.530309354 -15.7804277419 0 0 1 
87.9548336930 246.530309354 -14.5714155072 0 0 1 
87.9548336930 252.530309354 -13.7750616425 0 0 1 
87.9548336930 258.530309354 -13.3913661478 0 0 1 
87.9548336930 264.530309354 -13.3978265078 0 0 1 
87.9548336930 270.530309354 -13.4746935142 0 0 1 
87.9548336930 276.530309354 -13.5181009627 0 0 1 
87.9548336930 282.530309354 -13.5280488534 0 0 1 
87.9548336930 288.530309354 -13.5204979912 0 0 1 
87.9548336930 294.530309354 -13.8096390282 0 0 1 
93.9548336930 -299.469690646 -2.75206014555 0 0 1 
93.9548336930 -293.469690646 7.67368034081 0 0 1 
93.9548336930 -287.469690646 15.8404436861 0 0 1 
93.9548336930 -281.469690646 21.0666645086 0 0 1 
93.9548336930 -275.469690646 23.3523428083 0 0 1 
93.9548336930 -269.469690646 22.9048453328 0 0 1 
93.9548336930 -263.469690646 21.1994172324 0 0 1 
93.9548336930 -257.469690646 18.5249332331 0 0 1 
93.9548336930 -251.469690646 14.8813933348 0 0 1 
93.9548336930 -245.469690646 10.4836539137 0 0 1 
93.9548336930 -239.469690646 7.25673921603 0 0 1 
93.9548336930 -233.469690646 5.65754828313 0 0 1 
93.9548336930 -227.469690646 5.68608111497 0 0 1 
93.9548336930 -221.469690646 7.21189294307 0 0 1 
93.9548336930 -215.469690646 8.72531655472 0 0 1 
93.9548336930 -209.469690646 9.79545771175 0 0 1 
93.9548336930 -203.469690646 10.4223164141 0 0 1 
93.9548336930 -197.469690646 10.6021713795 0 0 1 
93.9548336930 -191.469690646 10.2773904589 0 0 1 
93.9548336930 -185.469690646 9.42829369258 0 0 1 
93.9548336930 -179.469690646 8.05488108053 0 0 1 
93.9548336930 -173.469690646 6.18262915842 0 0 1 
93.9548336930 -167.469690646 4.36718256697 0 0 1 
93.9548336930 -161.469690646 2.83493033151 0 0 1 
93.9548336930 -155.469690646 1.58587245202 0 0 1 
93.9548336930 -149.469690646 0.615624092378 0 0 1 
93.9548336930 -143.469690646 -0.221400244474 0 0 1 
93.9548336930 -137.469690646 -0.995948952838 0 0 1 
93.9548336930 -131.469690646 -1.70802203271 0 0 1 
93.9548336930 -125.469690646 -2.35775112581 0 0 1 
93.9548336930 -119.469690646 -2.95271203065 0 0 1 
93.9548336930 -113.469690646 -3.49730466359 0 0 1 
93.9548336930 -107.469690646 -3.99152902464 0 0 1 
93.9548336930 -101.469690646 -4.43669785046 0 0 1 
93.9548336930 -95.4696906465 -5.00128760702 0 0 1 
93.9548336930 -89.4696906465 -5.80278617101 0 0 1 
93.9548336930 -83.4696906465 -6.84119354243 0 0 1 
93.9548336930 -77.4696906465 -8.11602146487 0 0 1 
93.9548336930 -71.4696906465 -9.35063763924 0 0 1 
93.9548336930 -65.4696906465 -10.3116023017 0 0 1 
93.9548336930 -59.4696906465 -10.9989154522 0 0 1 
93.9548336930 -53.4696906465 -11.4125770907 0 0 1 
93.9548336930 -47.4696906465 -11.6875496932 0 0 1 
93.9548336930 -41.4696906465 -11.9632307207 0 0 1 
93.9548336930 -35.4696906465 -12.2396292447 0 0 1 
93.9548336930 -29.4696906465 -12.5167452653 0 0 1 
93.9548336930 -23.4696906465 -12.7751593337 0 0 1 
93.9548336930 -17.4696906465 -12.9904149862 0 0 1 
93.9548336930 -11.4696906465 -13.1624331113 0 0 1 
93.9548336930 -5.46969064648 -13.2912137091 0 0 1 
93.9548336930 0.53030935352 -13.4013123989 0 0 1 
93.9548336930 6.53030935352 -13.5300456419 0 0 1 
93.9548336930 12.5303093535 -13.6778029847 0 0 1 
93.9548336930 18.5303093535 -13.8445844272 0 0 1 
93.9548336930 24.5303093535 -13.9980678287 0 0 1 
93.9548336930 30.5303093535 -14.0793796073 0 0 1 
93.9548336930 36.5303093535 -14.0872808235 0 0 1 
93.9548336930 42.5303093535 -14.0217714775 0 0 1 
93.9548336930 48.5303093535 -13.9233612322 0 0 1 
93.9548336930 54.5303093535 -13.8801560490 0 0 1 
93.9548336930 60.5303093535 -13.8952161026 0 0 1 
93.9548336930 66.5303093535 -13.9685413929 0 0 1 
93.9548336930 72.5303093535 -14.0848536153 0 0 1 
93.9548336930 78.5303093535 -14.2045246974 0 0 1 
93.9548336930 84.5303093535 -14.3255179537 0 0 1 
93.9548336930 90.5303093535 -14.4478333842 0 0 1 
93.9548336930 96.5303093535 -14.5649495924 0 0 1 
93.9548336930 102.530309354 -14.6566724767 0 0 1 
93.9548336930 108.530309354 -14.7215668027 0 0 1 
93.9548336930 114.530309354 -14.7596325707 0 0 1 
93.9548336930 120.530309354 -14.7711480282 0 0 1 
93.9548336930 126.530309354 -14.7571453839 0 0 1 
93.9548336930 132.530309354 -14.7177215955 0 0 1 
93.9548336930 138.530309354 -14.6528766630 0 0 1 
93.9548336930 144.530309354 -14.5954952335 0 0 1 
93.9548336930 150.530309354 -14.6925962246 0 0 1 
93.9548336930 156.530309354 -14.9618610512 0 0 1 
93.9548336930 162.530309354 -15.4032897133 0 0 1 
93.9548336930 168.530309354 -15.9848316092 0 0 1 
93.9548336930 174.530309354 -16.5322610234 0 0 1 
93.9548336930 180.530309354 -17.0193583319 0 0 1 
93.9548336930 186.530309354 -17.4461235348 0 0 1 
93.9548336930 192.530309354 -17.8154925972 0 0 1 
93.9548336930 198.530309354 -18.1471131559 0 0 1 
93.9548336930 204.530309354 -18.4446235425 0 0 1 
93.9548336930 210.530309354 -18.7080237572 0 0 1 
93.9548336930 216.530309354 -18.9001133174 0 0 1 
93.9548336930 222.530309354 -18.7091765374 0 0 1 
93.9548336930 228.530309354 -18.0650521465 0 0 1 
93.9548336930 234.530309354 -16.9677401446 0 0 1 
93.9548336930 240.530309354 -15.4787928911 0 0 1 
93.9548336930 246.530309354 -14.2591586171 0 0 1 
93.9548336930 252.530309354 -13.4880820559 0 0 1 
93.9548336930 258.530309354 -13.1655632074 0 0 1 
93.9548336930 264.530309354 -13.2660669268 0 0 1 
93.9548336930 270.530309354 -13.4267518935 0 0 1 
93.9548336930 276.530309354 -13.5297540135 0 0 1 
93.9548336930 282.530309354 -13.5750732870 0 0 1 
93.9548336930 288.530309354 -13.5793305089 0 0 1 
93.9548336930 294.530309354 -13.8697083294 0 0 1 
99.9548336930 -299.469690646 -3.11178334845 0 0 1 
99.9548336930 -293.469690646 7.10694880618 0 0 1 
99.9548336930 -287.469690646 15.1673460141 0 0 1 
99.9548336930 -281.469690646 20.4092556899 0 0 1 
99.9548336930 -275.469690646 22.8326778336 0 0 1 
99.9548336930 -269.469690646 22.6633014054 0 0 1 
99.9548336930 -263.469690646 21.5067191421 0 0 1 
99.9548336930 -257.469690646 19.6773297469 0 0 1 
99.9548336930 -251.469690646 17.1751332197 0 0 1 
99.9548336930 -245.469690646 14.1287201162 0 0 1 
99.9548336930 -239.469690646 11.6902086167 0 0 1 
99.9548336930 -233.469690646 10.1330507016 0 0 1 
99.9548336930 -227.469690646 9.45724637093 0 0 1 
99.9548336930 -221.469690646 9.60364907286 0 0 1 
99.9548336930 -215.469690646 9.88774220307 0 0 1 
99.9548336930 -209.469690646 10.1141487551 0 0 1 
99.9548336930 -203.469690646 10.2828687290 0 0 1 
99.9548336930 -197.469690646 10.3730881197 0 0 1 
99.9548336930 -191.469690646 10.0624568016 0 0 1 
99.9548336930 -185.469690646 9.24090014461 0 0 1 
99.9548336930 -179.469690646 7.90841814869 0 0 1 
99.9548336930 -173.469690646 6.08985851558 0 0 1 
99.9548336930 -167.469690646 4.32715098274 0 0 1 
99.9548336930 -161.469690646 2.84109664509 0 0 1 
99.9548336930 -155.469690646 1.63169550264 0 0 1 
99.9548336930 -149.469690646 0.694375420292 0 0 1 
99.9548336930 -143.469690646 -0.122667805876 0 0 1 
99.9548336930 -137.469690646 -0.893204598706 0 0 1 
99.9548336930 -131.469690646 -1.61723495820 0 0 1 
99.9548336930 -125.469690646 -2.29461631071 0 0 1 
99.9548336930 -119.469690646 -2.91714373994 0 0 1 
99.9548336930 -113.469690646 -3.48005194685 0 0 1 
99.9548336930 -107.469690646 -3.98334093143 0 0 1 
99.9548336930 -101.469690646 -4.42838286609 0 0 1 
99.9548336930 -95.4696906465 -4.99128218863 0 0 1 
99.9548336930 -89.4696906465 -5.79484617873 0 0 1 
99.9548336930 -83.4696906465 -6.83907483641 0 0 1 
99.9548336930 -77.4696906465 -8.12350238198 0 0 1 
99.9548336930 -71.4696906465 -9.38423120651 0 0 1 
99.9548336930 -65.4696906465 -10.3985678801 0 0 1 
99.9548336930 -59.4696906465 -11.1665124026 0 0 1 
99.9548336930 -53.4696906465 -11.6880647743 0 0 1 
99.9548336930 -47.4696906465 -12.0519110454 0 0 1 
99.9548336930 -41.4696906465 -12.3496515682 0 0 1 
99.9548336930 -35.4696906465 -12.5812923036 0 0 1 
99.9548336930 -29.4696906465 -12.7468332515 0 0 1 
99.9548336930 -23.4696906465 -12.8721135105 0 0 1 
99.9548336930 -17.4696906465 -12.9896743226 0 0 1 
99.9548336930 -11.4696906465 -13.0996209520 0 0 1 
99.9548336930 -5.46969064648 -13.2019533985 0 0 1 
99.9548336930 0.53030935352 -13.3100189148 0 0 1 
99.9548336930 6.53030935352 -13.4441009323 0 0 1 
99.9548336930 12.5303093535 -13.6044111898 0 0 1 
99.9548336930 18.5303093535 -13.7909496874 0 0 1 
99.9548336930 24.5303093535 -13.9664861392 0 0 1 
99.9548336930 30.5303093535 -14.0632069593 0 0 1 
99.9548336930 36.5303093535 -14.0796850743 0 0 1 
99.9548336930 42.5303093535 -14.0159204842 0 0 1 
99.9548336930 48.5303093535 -13.9150022131 0 0 1 
99.9548336930 54.5303093535 -13.8706461701 0 0 1 
99.9548336930 60.5303093535 -13.8861073795 0 0 1 
99.9548336930 66.5303093535 -13.9613858413 0 0 1 
99.9548336930 72.5303093535 -14.0805786224 0 0 1 
99.9548336930 78.5303093535 -14.2024375220 0 0 1 
99.9548336930 84.5303093535 -14.3248425880 0 0 1 
99.9548336930 90.5303093535 -14.4477938203 0 0 1 
99.9548336930 96.5303093535 -14.5650894170 0 0 1 
99.9548336930 102.530309354 -14.6575249297 0 0 1 
99.9548336930 108.530309354 -14.7237354611 0 0 1 
99.9548336930 114.530309354 -14.7637210110 0 0 1 
99.9548336930 120.530309354 -14.7812264619 0 0 1 
99.9548336930 126.530309354 -14.7901441071 0 0 1 
99.9548336930 132.530309354 -14.7917788832 0 0 1 
99.9548336930 138.530309354 -14.7861307901 0 0 1 
99.9548336930 144.530309354 -14.7966418041 0 0 1 
99.9548336930 150.530309354 -14.9281150565 0 0 1 
99.9548336930 156.530309354 -15.1931548274 0 0 1 
99.9548336930 162.530309354 -15.5917611168 0 0 1 
99.9548336930 168.530309354 -16.0989346528 0 0 1 
99.9548336930 174.530309354 -16.5787804495 0 0 1 
99.9548336930 180.530309354 -17.0108473616 0 0 1 
99.9548336930 186.530309354 -17.3951353891 0 0 1 
99.9548336930 192.530309354 -17.7327457874 0 0 1 
99.9548336930 198.530309354 -18.0310482172 0 0 1 
99.9548336930 204.530309354 -18.2914073856 0 0 1 
99.9548336930 210.530309354 -18.5138232925 0 0 1 
99.9548336930 216.530309354 -18.6641473431 0 0 1 
99.9548336930 222.530309354 -18.4562366703 0 0 1 
99.9548336930 228.530309354 -17.8256859584 0 0 1 
99.9548336930 234.530309354 -16.7724952075 0 0 1 
99.9548336930 240.530309354 -15.3548134963 0 0 1 
99.9548336930 246.530309354 -14.1970446871 0 0 1 
99.9548336930 252.530309354 -13.4685229250 0 0 1 
99.9548336930 258.530309354 -13.1692482100 0 0 1 
99.9548336930 264.530309354 -13.2746809681 0 0 1 
99.9548336930 270.530309354 -13.4361264322 0 0 1 
99.9548336930 276.530309354 -13.5403158249 0 0 1 
99.9548336930 282.530309354 -13.5872491461 0 0 1 
99.9548336930 288.530309354 -13.5934748124 0 0 1 
99.9548336930 294.530309354 -13.8847506926 0 0 1 
105.954833693 -299.469690646 -3.41864217124 0 0 1 
105.954833693 -293.469690646 6.62322094686 0 0 1 
105.954833693 -287.469690646 14.5906940739 0 0 1 
105.954833693 -281.469690646 19.8416310874 0 0 1 
105.954833693 -275.469690646 22.3760319875 0 0 1 
105.954833693 -269.469690646 22.4361858110 0 0 1 
105.954833693 -263.469690646 21.7457812911 0 0 1 
105.954833693 -257.469690646 20.6423420661 0 0 1 
105.954833693 -251.469690646 19.1258681360 0 0 1 
105.954833693 -245.469690646 17.2504623407 0 0 1 
105.954833693 -239.469690646 15.5008637434 0 0 1 
105.954833693 -233.469690646 13.9921237849 0 0 1 
105.954833693 -227.469690646 12.7242424653 0 0 1 
105.954833693 -221.469690646 11.6990094507 0 0 1 
105.954833693 -215.469690646 10.9371369569 0 0 1 
105.954833693 -209.469690646 10.4445367336 0 0 1 
105.954833693 -203.469690646 10.2212087808 0 0 1 
105.954833693 -197.469690646 10.2319146842 0 0 1 
105.954833693 -191.469690646 9.93091097822 0 0 1 
105.954833693 -185.469690646 9.13183970808 0 0 1 
105.954833693 -179.469690646 7.83470087382 0 0 1 
105.954833693 -173.469690646 6.06367730576 0 0 1 
105.954833693 -167.469690646 4.34619786021 0 0 1 
105.954833693 -161.469690646 2.89715546684 0 0 1 
105.954833693 -155.469690646 1.71655012567 0 0 1 
105.954833693 -149.469690646 0.799716330258 0 0 1 
105.954833693 -143.469690646 -0.0082502416136 0 0 1 
105.954833693 -137.469690646 -0.782626539176 0 0 1 
105.954833693 -131.469690646 -1.52341256243 0 0 1 
105.954833693 -125.469690646 -2.23023346125 0 0 1 
105.954833693 -119.469690646 -2.88151712836 0 0 1 
105.954833693 -113.469690646 -3.46473478976 0 0 1 
105.954833693 -107.469690646 -3.97988644544 0 0 1 
105.954833693 -101.469690646 -4.42838878728 0 0 1 
105.954833693 -95.4696906465 -4.99205987686 0 0 1 
105.954833693 -89.4696906465 -5.79769141701 0 0 1 
105.954833693 -83.4696906465 -6.84528340772 0 0 1 
105.954833693 -77.4696906465 -8.13439265134 0 0 1 
105.954833693 -71.4696906465 -9.41391587532 0 0 1 
105.954833693 -65.4696906465 -10.4719563169 0 0 1 
105.954833693 -59.4696906465 -11.3085139761 0 0 1 
105.954833693 -53.4696906465 -11.9235888530 0 0 1 
105.954833693 -47.4696906465 -12.3662266031 0 0 1 
105.954833693 -41.4696906465 -12.6870845655 0 0 1 
105.954833693 -35.4696906465 -12.8861660367 0 0 1 
105.954833693 -29.4696906465 -12.9634710168 0 0 1 
105.954833693 -23.4696906465 -12.9815381038 0 0 1 
105.954833693 -17.4696906465 -13.0191271534 0 0 1 
105.954833693 -11.4696906465 -13.0764929370 0 0 1 
105.954833693 -5.46969064648 -13.1536354545 0 0 1 
105.954833693 0.53030935352 -13.2555175228 0 0 1 
105.954833693 6.53030935352 -13.3896809900 0 0 1 
105.954833693 12.5303093535 -13.5562045856 0 0 1 
105.954833693 18.5303093535 -13.7550883096 0 0 1 
105.954833693 24.5303093535 -13.9452736262 0 0 1 
105.954833693 30.5303093535 -14.0519739338 0 0 1 
105.954833693 36.5303093535 -14.0736154185 0 0 1 
105.954833693 42.5303093535 -14.0101980802 0 0 1 
105.954833693 48.5303093535 -13.9067632240 0 0 1 
105.954833693 54.5303093535 -13.8612728467 0 0 1 
105.954833693 60.5303093535 -13.8771294516 0 0 1 
105.954833693 66.5303093535 -13.9543330386 0 0 1 
105.954833693 72.5303093535 -14.0763650156 0 0 1 
105.954833693 78.5303093535 -14.2003803171 0 0 1 
105.954833693 84.5303093535 -14.3241769200 0 0 1 
105.954833693 90.5303093535 -14.4477548245 0 0 1 
105.954833693 96.5303093535 -14.5650534902 0 0 1 
105.954833693 102.530309354 -14.6573058988 0 0 1 
105.954833693 108.530309354 -14.7231782418 0 0 1 
105.954833693 114.530309354 -14.7626705193 0 0 1 
105.954833693 120.530309354 -14.7824330631 0 0 1 
105.954833693 126.530309354 -14.8071364366 0 0 1 
105.954833693 132.530309354 -14.8390980053 0 0 1 
105.954833693 138.530309354 -14.8783177693 0 0 1 
105.954833693 144.530309354 -14.9388033069 0 0 1 
105.954833693 150.530309354 -15.0831789487 0 0 1 
105.954833693 156.530309354 -15.3189762886 0 0 1 
105.954833693 162.530309354 -15.6461953265 0 0 1 
105.954833693 168.530309354 -16.0491678792 0 0 1 
105.954833693 174.530309354 -16.4427223649 0 0 1 
105.954833693 180.530309354 -16.8140411189 0 0 1 
105.954833693 186.530309354 -17.1631241410 0 0 1 
105.954833693 192.530309354 -17.4876746963 0 0 1 
105.954833693 198.530309354 -17.7723229106 0 0 1 
105.954833693 204.530309354 -18.0142226043 0 0 1 
105.954833693 210.530309354 -18.2133737775 0 0 1 
105.954833693 216.530309354 -18.3393527419 0 0 1 
105.954833693 222.530309354 -18.1372289095 0 0 1 
105.954833693 228.530309354 -17.5496222547 0 0 1 
105.954833693 234.530309354 -16.5765327775 0 0 1 
105.954833693 240.530309354 -15.2710026596 0 0 1 
105.954833693 246.530309354 -14.2025979852 0 0 1 
105.954833693 252.530309354 -13.5257812612 0 0 1 
105.954833693 258.530309354 -13.2405524875 0 0 1 
105.954833693 264.530309354 -13.3246587229 0 0 1 
105.954833693 270.530309354 -13.4618970787 0 0 1 
105.954833693 276.530309354 -13.5495533245 0 0 1 
105.954833693 282.530309354 -13.5876274603 0 0 1 
105.954833693 288.530309354 -13.5923915802 0 0 1 
105.954833693 294.530309354 -13.8841641064 0 0 1 
111.954833693 -299.469690646 -3.61296209465 0 0 1 
111.954833693 -293.469690646 6.31669914919 0 0 1 
111.954833693 -287.469690646 14.2237872206 0 0 1 
111.954833693 -281.469690646 19.4773760719 0 0 1 
111.954833693 -275.469690646 22.0774657030 0 0 1 
111.954833693 -269.469690646 22.2747123166 0 0 1 
111.954833693 -263.469690646 21.8523301996 0 0 1 
111.954833693 -257.469690646 21.1594989707 0 0 1 
111.954833693 -251.469690646 20.1962186298 0 0 1 
111.954833693 -245.469690646 18.9760023665 0 0 1 
111.954833693 -239.469690646 17.6199227700 0 0 1 
111.954833693 -233.469690646 16.1567160756 0 0 1 
111.954833693 -227.469690646 14.5863822833 0 0 1 
111.954833693 -221.469690646 12.9434875321 0 0 1 
111.954833693 -215.469690646 11.6280736720 0 0 1 
111.954833693 -209.469690646 10.7543219789 0 0 1 
111.954833693 -203.469690646 10.3222324527 0 0 1 
111.954833693 -197.469690646 10.2889802608 0 0 1 
111.954833693 -191.469690646 9.99132974890 0 0 1 
111.954833693 -185.469690646 9.20280227350 0 0 1 
111.954833693 -179.469690646 7.92339783453 0 0 1 
111.954833693 -173.469690646 6.17679598177 0 0 1 
111.954833693 -167.469690646 4.47944899440 0 0 1 
111.954833693 -161.469690646 3.04177756140 0 0 1 
111.954833693 -155.469690646 1.86378168278 0 0 1 
111.954833693 -149.469690646 0.940861484877 0 0 1 
111.954833693 -143.469690646 0.120291787728 0 0 1 
111.954833693 -137.469690646 -0.672145386932 0 0 1 
111.954833693 -131.469690646 -1.43645003910 0 0 1 
111.954833693 -125.469690646 -2.1721050583 0 0 1 
111.954833693 -119.469690646 -2.84935144991 0 0 1 
111.954833693 -113.469690646 -3.45090561185 0 0 1 
111.954833693 -107.469690646 -3.97676754413 0 0 1 
111.954833693 -101.469690646 -4.42839382739 0 0 1 
111.954833693 -95.4696906465 -4.99272184390 0 0 1 
111.954833693 -89.4696906465 -5.80011327949 0 0 1 
111.954833693 -83.4696906465 -6.85056813416 0 0 1 
111.954833693 -77.4696906465 -8.14365548212 0 0 1 
111.954833693 -71.4696906465 -9.43522494904 0 0 1 
111.954833693 -65.4696906465 -10.5192470658 0 0 1 
111.954833693 -59.4696906465 -11.3957218323 0 0 1 
111.954833693 -53.4696906465 -12.0646492486 0 0 1 
111.954833693 -47.4696906465 -12.5543466527 0 0 1 
111.954833693 -41.4696906465 -12.8940619150 0 0 1 
111.954833693 -35.4696906465 -13.0837969388 0 0 1 
111.954833693 -29.4696906465 -13.1235517243 0 0 1 
111.954833693 -23.4696906465 -13.0928048382 0 0 1 
111.954833693 -17.4696906465 -13.0916499932 0 0 1 
111.954833693 -11.4696906465 -13.1204109709 0 0 1 
111.954833693 -5.46969064648 -13.1790877715 0 0 1 
111.954833693 0.53030935352 -13.2698577653 0 0 1 
111.954833693 6.53030935352 -13.3960298388 0 0 1 
111.954833693 12.5303093535 -13.5576385333 0 0 1 
111.954833693 18.5303093535 -13.7546838491 0 0 1 
111.954833693 24.5303093535 -13.9447381109 0 0 1 
111.954833693 30.5303093535 -14.0505208806 0 0 1 
111.954833693 36.5303093535 -14.0704058639 0 0 1 
111.954833693 42.5303093535 -14.0043930606 0 0 1 
111.954833693 48.5303093535 -13.8982671805 0 0 1 
111.954833693 54.5303093535 -13.8516070780 0 0 1 
111.954833693 60.5303093535 -13.8678714146 0 0 1 
111.954833693 66.5303093535 -13.9470601903 0 0 1 
111.954833693 72.5303093535 -14.0720199454 0 0 1 
111.954833693 78.5303093535 -14.1982589279 0 0 1 
111.954833693 84.5303093535 -14.3234904834 0 0 1 
111.954833693 90.5303093535 -14.4477146121 0 0 1 
111.954833693 96.5303093535 -14.5647682617 0 0 1 
111.954833693 102.530309354 -14.6555669770 0 0 1 
111.954833693 108.530309354 -14.7187543886 0 0 1 
111.954833693 114.530309354 -14.7543304966 0 0 1 
111.954833693 120.530309354 -14.7703733856 0 0 1 
111.954833693 126.530309354 -14.7968501167 0 0 1 
111.954833693 132.530309354 -14.8365755681 0 0 1 
111.954833693 138.530309354 -14.8895497400 0 0 1 
111.954833693 144.530309354 -14.9637106819 0 0 1 
111.954833693 150.530309354 -15.0945474014 0 0 1 
111.954833693 156.530309354 -15.2863280284 0 0 1 
111.954833693 162.530309354 -15.5390525629 0 0 1 
111.954833693 168.530309354 -15.8447523821 0 0 1 
111.954833693 174.530309354 -16.1601103883 0 0 1 
111.954833693 180.530309354 -16.4786076932 0 0 1 
111.954833693 186.530309354 -16.8002442967 0 0 1 
111.954833693 192.530309354 -17.1196343854 0 0 1 
111.954833693 198.530309354 -17.4007358045 0 0 1 
111.954833693 204.530309354 -17.6368743007 0 0 1 
111.954833693 210.530309354 -17.8280498738 0 0 1 
111.954833693 216.530309354 -17.9469627030 0 0 1 
111.954833693 222.530309354 -17.7648581631 0 0 1 
111.954833693 228.530309354 -17.2302479399 0 0 1 
111.954833693 234.530309354 -16.3431320332 0 0 1 
111.954833693 240.530309354 -15.1518603302 0 0 1 
111.954833693 246.530309354 -14.1756131299 0 0 1 
111.954833693 252.530309354 -13.5551886517 0 0 1 
111.954833693 258.530309354 -13.2905868957 0 0 1 
111.954833693 264.530309354 -13.3616295328 0 0 1 
111.954833693 270.530309354 -13.4815928481 0 0 1 
111.954833693 276.530309354 -13.5573385221 0 0 1 
111.954833693 282.530309354 -13.5888665550 0 0 1 
111.954833693 288.530309354 -13.5922589552 0 0 1 
111.954833693 294.530309354 -13.8840922881 0 0 1 
117.954833693 -299.469690646 -3.69474311868 0 0 1 
117.954833693 -293.469690646 6.18738341316 0 0 1 
117.954833693 -287.469690646 14.0666254543 0 0 1 
117.954833693 -281.469690646 19.3164906433 0 0 1 
117.954833693 -275.469690646 21.9369789802 0 0 1 
117.954833693 -269.469690646 22.1788809221 0 0 1 
117.954833693 -263.469690646 21.8263658679 0 0 1 
117.954833693 -257.469690646 21.2288004609 0 0 1 
117.954833693 -251.469690646 20.3861847011 0 0 1 
117.954833693 -245.469690646 19.3053401936 0 0 1 
117.954833693 -239.469690646 18.0473856965 0 0 1 
117.954833693 -233.469690646 16.6268275736 0 0 1 
117.954833693 -227.469690646 15.0436658249 0 0 1 
117.954833693 -221.469690646 13.3370833170 0 0 1 
117.954833693 -215.469690646 11.9605523484 0 0 1 
117.954833693 -209.469690646 11.0435044911 0 0 1 
117.954833693 -203.469690646 10.5859397450 0 0 1 
117.954833693 -197.469690646 10.5442848493 0 0 1 
117.954833693 -191.469690646 10.2437131137 0 0 1 
117.954833693 -185.469690646 9.45378784086 0 0 1 
117.954833693 -179.469690646 8.17450903084 0 0 1 
117.954833693 -173.469690646 6.42921454359 0 0 1 
117.954833693 -167.469690646 4.72690438532 0 0 1 
117.954833693 -161.469690646 3.27496292878 0 0 1 
117.954833693 -155.469690646 2.07339017397 0 0 1 
117.954833693 -149.469690646 1.11781088415 0 0 1 
117.954833693 -143.469690646 0.262958282148 0 0 1 
117.954833693 -137.469690646 -0.561761141975 0 0 1 
117.954833693 -131.469690646 -1.35634738822 0 0 1 
117.954833693 -125.469690646 -2.12023110186 0 0 1 
117.954833693 -119.469690646 -2.82064670458 0 0 1 
117.954833693 -113.469690646 -3.43856441313 0 0 1 
117.954833693 -107.469690646 -3.9739842275 0 0 1 
117.954833693 -101.469690646 -4.42839798642 0 0 1 
117.954833693 -95.4696906465 -4.99326808975 0 0 1 
117.954833693 -89.4696906465 -5.80211176619 0 0 1 
117.954833693 -83.4696906465 -6.85492901574 0 0 1 
117.954833693 -77.4696906465 -8.15129087434 0 0 1 
117.954833693 -71.4696906465 -9.44815842768 0 0 1 
117.954833693 -65.4696906465 -10.5404401266 0 0 1 
117.954833693 -59.4696906465 -11.4281359711 0 0 1 
117.954833693 -53.4696906465 -12.1112459612 0 0 1 
117.954833693 -47.4696906465 -12.6162711941 0 0 1 
117.954833693 -41.4696906465 -12.9705836166 0 0 1 
117.954833693 -35.4696906465 -13.1741850099 0 0 1 
117.954833693 -29.4696906465 -13.2270753740 0 0 1 
117.954833693 -23.4696906465 -13.2059137137 0 0 1 
117.954833693 -17.4696906465 -13.2072428419 0 0 1 
117.954833693 -11.4696906465 -13.2313750538 0 0 1 
117.954833693 -5.46969064648 -13.2783103494 0 0 1 
117.954833693 0.53030935352 -13.3530396423 0 0 1 
117.954833693 6.53030935352 -13.4631474785 0 0 1 
117.954833693 12.5303093535 -13.6087130329 0 0 1 
117.954833693 18.5303093535 -13.7897363057 0 0 1 
117.954833693 24.5303093535 -13.9648795932 0 0 1 
117.954833693 30.5303093535 -14.0588477997 0 0 1 
117.954833693 36.5303093535 -14.0700564105 0 0 1 
117.954833693 42.5303093535 -13.9985054256 0 0 1 
117.954833693 48.5303093535 -13.8895140826 0 0 1 
117.954833693 54.5303093535 -13.8416488640 0 0 1 
117.954833693 60.5303093535 -13.8583332686 0 0 1 
117.954833693 66.5303093535 -13.9395672964 0 0 1 
117.954833693 72.5303093535 -14.0675434116 0 0 1 
117.954833693 78.5303093535 -14.1960733544 0 0 1 
117.954833693 84.5303093535 -14.3227832782 0 0 1 
117.954833693 90.5303093535 -14.4476731830 0 0 1 
117.954833693 96.5303093535 -14.5642337314 0 0 1 
117.954833693 102.530309354 -14.6523081643 0 0 1 
117.954833693 108.530309354 -14.7104639014 0 0 1 
117.954833693 114.530309354 -14.7387009428 0 0 1 
117.954833693 120.530309354 -14.7450474295 0 0 1 
117.954833693 126.530309354 -14.7592851475 0 0 1 
117.954833693 132.530309354 -14.7842115717 0 0 1 
117.954833693 138.530309354 -14.8198267021 0 0 1 
117.954833693 144.530309354 -14.8713639292 0 0 1 
117.954833693 150.530309354 -14.9622204144 0 0 1 
117.954833693 156.530309354 -15.0952100468 0 0 1 
117.954833693 162.530309354 -15.2703328262 0 0 1 
117.954833693 168.530309354 -15.4856881616 0 0 1 
117.954833693 174.530309354 -15.7309445196 0 0 1 
117.954833693 180.530309354 -16.0045470845 0 0 1 
117.954833693 186.530309354 -16.3064958561 0 0 1 
117.954833693 192.530309354 -16.6286248545 0 0 1 
117.954833693 198.530309354 -16.9162868991 0 0 1 
117.954833693 204.530309354 -17.1593624748 0 0 1 
117.954833693 210.530309354 -17.3578515815 0 0 1 
117.954833693 216.530309354 -17.4869772264 0 0 1 
117.954833693 222.530309354 -17.3391244312 0 0 1 
117.954833693 228.530309354 -16.8675630139 0 0 1 
117.954833693 234.530309354 -16.0722929747 0 0 1 
117.954833693 240.530309354 -14.9973865080 0 0 1 
117.954833693 246.530309354 -14.1160901211 0 0 1 
117.954833693 252.530309354 -13.5567450966 0 0 1 
117.954833693 258.530309354 -13.3193514348 0 0 1 
117.954833693 264.530309354 -13.3855933977 0 0 1 
117.954833693 270.530309354 -13.4952137404 0 0 1 
117.954833693 276.530309354 -13.5636714179 0 0 1 
117.954833693 282.530309354 -13.5909664301 0 0 1 
117.954833693 288.530309354 -13.5930769376 0 0 1 
117.954833693 294.530309354 -13.8845352375 0 0 1 
123.954833693 -299.469690646 -3.66293219697 0 0 1 
123.954833693 -293.469690646 6.23694389212 0 0 1 
123.954833693 -287.469690646 14.1212764924 0 0 1 
123.954833693 -281.469690646 19.3611680745 0 0 1 
123.954833693 -275.469690646 21.9566186385 0 0 1 
123.954833693 -269.469690646 22.1505011144 0 0 1 
123.954833693 -263.469690646 21.6706581589 0 0 1 
123.954833693 -257.469690646 20.8554268097 0 0 1 
123.954833693 -251.469690646 19.7048070669 0 0 1 
123.954833693 -245.469690646 18.2524852117 0 0 1 
123.954833693 -239.469690646 16.8002763878 0 0 1 
123.954833693 -233.469690646 15.4198155632 0 0 1 
123.954833693 -227.469690646 14.1111027379 0 0 1 
123.954833693 -221.469690646 12.8900321482 0 0 1 
123.954833693 -215.469690646 11.9405514372 0 0 1 
123.954833693 -209.469690646 11.3151635530 0 0 1 
123.954833693 -203.469690646 11.0138684956 0 0 1 
123.954833693 -197.469690646 10.9991305285 0 0 1 
123.954833693 -191.469690646 10.6896271510 0 0 1 
123.954833693 -185.469690646 9.88685104429 0 0 1 
123.954833693 -179.469690646 8.59080220844 0 0 1 
123.954833693 -173.469690646 6.82459835453 0 0 1 
123.954833693 -167.469690646 5.09243803052 0 0 1 
123.954833693 -161.469690646 3.59974932747 0 0 1 
123.954833693 -155.469690646 2.34653224538 0 0 1 
123.954833693 -149.469690646 1.32883912963 0 0 1 
123.954833693 -143.469690646 0.415599801102 0 0 1 
123.954833693 -137.469690646 -0.456880303894 0 0 1 
123.954833693 -131.469690646 -1.28860118536 0 0 1 
123.954833693 -125.469690646 -2.07904747482 0 0 1 
123.954833693 -119.469690646 -2.79856042792 0 0 1 
123.954833693 -113.469690646 -3.42991466652 0 0 1 
123.954833693 -107.469690646 -3.97311019062 0 0 1 
123.954833693 -101.469690646 -4.42966796159 0 0 1 
123.954833693 -95.4696906465 -4.99478797716 0 0 1 
123.954833693 -89.4696906465 -5.80459389793 0 0 1 
123.954833693 -83.4696906465 -6.85908572389 0 0 1 
123.954833693 -77.4696906465 -8.15782623145 0 0 1 
123.954833693 -71.4696906465 -9.45309688611 0 0 1 
123.954833693 -65.4696906465 -10.5358571803 0 0 1 
123.954833693 -59.4696906465 -11.4061071141 0 0 1 
123.954833693 -53.4696906465 -12.0638466874 0 0 1 
123.954833693 -47.4696906465 -12.5525611646 0 0 1 
123.954833693 -41.4696906465 -12.9171647737 0 0 1 
123.954833693 -35.4696906465 -13.1576604376 0 0 1 
123.954833693 -29.4696906465 -13.2740481564 0 0 1 
123.954833693 -23.4696906465 -13.3205200210 0 0 1 
123.954833693 -17.4696906465 -13.3653244637 0 0 1 
123.954833693 -11.4696906465 -13.4086822535 0 0 1 
123.954833693 -5.46969064648 -13.4505933905 0 0 1 
123.954833693 0.53030935352 -13.5044264173 0 0 1 
123.954833693 6.53030935352 -13.5904971196 0 0 1 
123.954833693 12.5303093535 -13.7090175739 0 0 1 
123.954833693 18.5303093535 -13.8599877802 0 0 1 
123.954833693 24.5303093535 -14.0055928603 0 0 1 
123.954833693 30.5303093535 -14.0769544149 0 0 1 
123.954833693 36.5303093535 -14.0726229625 0 0 1 
123.954833693 42.5303093535 -13.9925985031 0 0 1 
123.954833693 48.5303093535 -13.8805455398 0 0 1 
123.954833693 54.5303093535 -13.8314316121 0 0 1 
123.954833693 60.5303093535 -13.8485552172 0 0 1 
123.954833693 66.5303093535 -13.9319163549 0 0 1 
123.954833693 72.5303093535 -14.0630257230 0 0 1 
123.954833693 78.5303093535 -14.1939267306 0 0 1 
123.954833693 84.5303093535 -14.3221546479 0 0 1 
123.954833693 90.5303093535 -14.4477094748 0 0 1 
123.954833693 96.5303093535 -14.5634962554 0 0 1 
123.954833693 102.530309354 -14.6475448083 0 0 1 
123.954833693 108.530309354 -14.6982936700 0 0 1 
123.954833693 114.530309354 -14.7157428405 0 0 1 
123.954833693 120.530309354 -14.7064111316 0 0 1 
123.954833693 126.530309354 -14.6944812097 0 0 1 
123.954833693 132.530309354 -14.6822246110 0 0 1 
123.954833693 138.530309354 -14.6696413354 0 0 1 
123.954833693 144.530309354 -14.6625975059 0 0 1 
123.954833693 150.530309354 -14.6873190703 0 0 1 
123.954833693 156.530309354 -14.7469601251 0 0 1 
123.954833693 162.530309354 -14.8415206703 0 0 1 
123.954833693 168.530309354 -14.9735357840 0 0 1 
123.954833693 174.530309354 -15.1567860436 0 0 1 
123.954833693 180.530309354 -15.3933453194 0 0 1 
123.954833693 186.530309354 -15.6832136115 0 0 1 
123.954833693 192.530309354 -16.0157649708 0 0 1 
123.954833693 198.530309354 -16.3198899707 0 0 1 
123.954833693 204.530309354 -16.5824206320 0 0 1 
123.954833693 210.530309354 -16.8033569548 0 0 1 
123.954833693 216.530309354 -16.9598443981 0 0 1 
123.954833693 222.530309354 -16.8603768712 0 0 1 
123.954833693 228.530309354 -16.4618499965 0 0 1 
123.954833693 234.530309354 -15.7642637740 0 0 1 
123.954833693 240.530309354 -14.8078237787 0 0 1 
123.954833693 246.530309354 -14.0242568210 0 0 1 
123.954833693 252.530309354 -13.5306443200 0 0 1 
123.954833693 258.530309354 -13.3269862757 0 0 1 
123.954833693 264.530309354 -13.3966196450 0 0 1 
123.954833693 270.530309354 -13.5027711263 0 0 1 
123.954833693 276.530309354 -13.5685281161 0 0 1 
123.954833693 282.530309354 -13.5938906142 0 0 1 
123.954833693 288.530309354 -13.5948182343 0 0 1 
123.954833693 294.530309354 -13.8854781753 0 0 1 
129.954833693 -299.469690646 -3.41653432801 0 0 1 
129.954833693 -293.469690646 6.62556075032 0 0 1 
129.954833693 -287.469690646 14.5860498587 0 0 1 
129.954833693 -281.469690646 19.8217595829 0 0 1 
129.954833693 -275.469690646 22.3326899230 0 0 1 
129.954833693 -269.469690646 22.3631161674 0 0 1 
129.954833693 -263.469690646 21.6508576091 0 0 1 
129.954833693 -257.469690646 20.5362048580 0 0 1 
129.954833693 -251.469690646 19.0191579142 0 0 1 
129.954833693 -245.469690646 17.1610423968 0 0 1 
129.954833693 -239.469690646 15.5113104827 0 0 1 
129.954833693 -233.469690646 14.2003730867 0 0 1 
129.954833693 -227.469690646 13.2282302088 0 0 1 
129.954833693 -221.469690646 12.5839797347 0 0 1 
129.954833693 -215.469690646 12.1414489960 0 0 1 
129.954833693 -209.469690646 11.8646253698 0 0 1 
129.954833693 -203.469690646 11.7535088562 0 0 1 
129.954833693 -197.469690646 11.7783963381 0 0 1 
129.954833693 -191.469690646 11.4792704599 0 0 1 
129.954833693 -185.469690646 10.6990466225 0 0 1 
129.954833693 -179.469690646 9.43772482608 0 0 1 
129.954833693 -173.469690646 7.71448309500 0 0 1 
129.954833693 -167.469690646 5.94759519456 0 0 1 
129.954833693 -161.469690646 4.30748045957 0 0 1 
129.954833693 -155.469690646 2.79413889000 0 0 1 
129.954833693 -149.469690646 1.40846763968 0 0 1 
129.954833693 -143.469690646 0.180254043566 0 0 1 
129.954833693 -137.469690646 -0.87602651334 0 0 1 
129.954833693 -131.469690646 -1.76037403104 0 0 1 
129.954833693 -125.469690646 -2.47398843586 0 0 1 
129.954833693 -119.469690646 -3.08592383176 0 0 1 
129.954833693 -113.469690646 -3.63628586308 0 0 1 
129.954833693 -107.469690646 -4.12507452985 0 0 1 
129.954833693 -101.469690646 -4.55368946597 0 0 1 
129.954833693 -95.4696906465 -5.10175952022 0 0 1 
129.954833693 -89.4696906465 -5.89454973726 0 0 1 
129.954833693 -83.4696906465 -6.93206011710 0 0 1 
129.954833693 -77.4696906465 -8.21384347979 0 0 1 
129.954833693 -71.4696906465 -9.48654029463 0 0 1 
129.954833693 -65.4696906465 -10.5363498261 0 0 1 
129.954833693 -59.4696906465 -11.3632720742 0 0 1 
129.954833693 -53.4696906465 -11.9673070389 0 0 1 
129.954833693 -47.4696906465 -12.4170146119 0 0 1 
129.954833693 -41.4696906465 -12.7832076233 0 0 1 
129.954833693 -35.4696906465 -13.0658906812 0 0 1 
129.954833693 -29.4696906465 -13.2650637856 0 0 1 
129.954833693 -23.4696906465 -13.4035635641 0 0 1 
129.954833693 -17.4696906465 -13.5101500075 0 0 1 
129.954833693 -11.4696906465 -13.5849161480 0 0 1 
129.954833693 -5.46969064648 -13.6278619858 0 0 1 
129.954833693 0.53030935352 -13.6629503016 0 0 1 
129.954833693 6.53030935352 -13.7265966368 0 0 1 
129.954833693 12.5303093535 -13.8191811333 0 0 1 
129.954833693 18.5303093535 -13.9407037910 0 0 1 
129.954833693 24.5303093535 -14.0567872102 0 0 1 
129.954833693 30.5303093535 -14.1048142306 0 0 1 
129.954833693 36.5303093535 -14.0834671329 0 0 1 
129.954833693 42.5303093535 -13.9927459170 0 0 1 
129.954833693 48.5303093535 -13.8753522083 0 0 1 
129.954833693 54.5303093535 -13.8241593479 0 0 1 
129.954833693 60.5303093535 -13.8423930954 0 0 1 
129.954833693 66.5303093535 -13.9300534508 0 0 1 
129.954833693 72.5303093535 -14.0671281404 0 0 1 
129.954833693 78.5303093535 -14.2017103700 0 0 1 
129.954833693 84.5303093535 -14.3311323888 0 0 1 
129.954833693 90.5303093535 -14.4553941969 0 0 1 
129.954833693 96.5303093535 -14.5670017190 0 0 1 
129.954833693 102.530309354 -14.6427488651 0 0 1 
129.954833693 108.530309354 -14.6809863330 0 0 1 
129.954833693 114.530309354 -14.6817141228 0 0 1 
129.954833693 120.530309354 -14.6502385000 0 0 1 
129.954833693 126.530309354 -14.6062439805 0 0 1 
129.954833693 132.530309354 -14.5515795782 0 0 1 
129.954833693 138.530309354 -14.4862452931 0 0 1 
129.954833693 144.530309354 -14.4174420734 0 0 1 
129.954833693 150.530309354 -14.3773635323 0 0 1 
129.954833693 156.530309354 -14.3698814752 0 0 1 
129.954833693 162.530309354 -14.3949959021 0 0 1 
129.954833693 168.530309354 -14.4579652084 0 0 1 
129.954833693 174.530309354 -14.5873738089 0 0 1 
129.954833693 180.530309354 -14.7875234372 0 0 1 
129.954833693 186.530309354 -15.0584140933 0 0 1 
129.954833693 192.530309354 -15.3883624439 0 0 1 
129.954833693 198.530309354 -15.6991829893 0 0 1 
129.954833693 204.530309354 -15.9763974096 0 0 1 
129.954833693 210.530309354 -16.2200057049 0 0 1 
129.954833693 216.530309354 -16.4085390107 0 0 1 
129.954833693 222.530309354 -16.3621022997 0 0 1 
129.954833693 228.530309354 -16.0402046233 0 0 1 
129.954833693 234.530309354 -15.4428459817 0 0 1 
129.954833693 240.530309354 -14.6064379123 0 0 1 
129.954833693 246.530309354 -13.9219669115 0 0 1 
129.954833693 252.530309354 -13.4954658980 0 0 1 
129.954833693 258.530309354 -13.3269348720 0 0 1 
129.954833693 264.530309354 -13.4013572771 0 0 1 
129.954833693 270.530309354 -13.5053555442 0 0 1 
129.954833693 276.530309354 -13.5696168569 0 0 1 
129.954833693 282.530309354 -13.5941412153 0 0 1 
129.954833693 288.530309354 -13.5948652452 0 0 1 
129.954833693 294.530309354 -13.8855036324 0 0 1 
135.954833693 -299.469690646 -2.88907430922 0 0 1 
135.954833693 -293.469690646 7.45866503592 0 0 1 
135.954833693 -287.469690646 15.5914734566 0 0 1 
135.954833693 -281.469690646 20.8367189496 0 0 1 
135.954833693 -275.469690646 23.1944015150 0 0 1 
135.954833693 -269.469690646 22.9309527671 0 0 1 
135.954833693 -263.469690646 21.9418161713 0 0 1 
135.954833693 -257.469690646 20.5981474718 0 0 1 
135.954833693 -251.469690646 18.8999466688 0 0 1 
135.954833693 -245.469690646 16.9153764370 0 0 1 
135.954833693 -239.469690646 15.2551461447 0 0 1 
135.954833693 -233.469690646 14.0642059272 0 0 1 
135.954833693 -227.469690646 13.3425557846 0 0 1 
135.954833693 -221.469690646 13.0650481264 0 0 1 
135.954833693 -215.469690646 12.9406441237 0 0 1 
135.954833693 -209.469690646 12.8862745055 0 0 1 
135.954833693 -203.469690646 12.9019392719 0 0 1 
135.954833693 -197.469690646 12.9642780242 0 0 1 
135.954833693 -191.469690646 12.7115041935 0 0 1 
135.954833693 -185.469690646 12.0200765755 0 0 1 
135.954833693 -179.469690646 10.8899951702 0 0 1 
135.954833693 -173.469690646 9.33025056833 0 0 1 
135.954833693 -167.469690646 7.53692804701 0 0 1 
135.954833693 -161.469690646 5.58991959383 0 0 1 
135.954833693 -155.469690646 3.48922520879 0 0 1 
135.954833693 -149.469690646 1.24777793244 0 0 1 
135.954833693 -143.469690646 -0.705018929977 0 0 1 
135.954833693 -137.469690646 -2.16049353286 0 0 1 
135.954833693 -131.469690646 -3.11864587621 0 0 1 
135.954833693 -125.469690646 -3.58507604662 0 0 1 
135.954833693 -119.469690646 -3.88206129708 0 0 1 
135.954833693 -113.469690646 -4.1967756861 0 0 1 
135.954833693 -107.469690646 -4.52921921368 0 0 1 
135.954833693 -101.469690646 -4.88042474789 0 0 1 
135.954833693 -95.4696906465 -5.38295045049 0 0 1 
135.954833693 -89.4696906465 -6.12923639540 0 0 1 
135.954833693 -83.4696906465 -7.11928258262 0 0 1 
135.954833693 -77.4696906465 -8.35263578981 0 0 1 
135.954833693 -71.4696906465 -9.57251303944 0 0 1 
135.954833693 -65.4696906465 -10.5622246758 0 0 1 
135.954833693 -59.4696906465 -11.3217706990 0 0 1 
135.954833693 -53.4696906465 -11.8511511089 0 0 1 
135.954833693 -47.4696906465 -12.2450415672 0 0 1 
135.954833693 -41.4696906465 -12.6012288611 0 0 1 
135.954833693 -35.4696906465 -12.9197193540 0 0 1 
135.954833693 -29.4696906465 -13.2005130459 0 0 1 
135.954833693 -23.4696906465 -13.4332840264 0 0 1 
135.954833693 -17.4696906465 -13.6050280507 0 0 1 
135.954833693 -11.4696906465 -13.7157030530 0 0 1 
135.954833693 -5.46969064648 -13.7653090333 0 0 1 
135.954833693 0.53030935352 -13.7884163001 0 0 1 
135.954833693 6.53030935352 -13.8375603463 0 0 1 
135.954833693 12.5303093535 -13.9132895900 0 0 1 
135.954833693 18.5303093535 -14.0156040311 0 0 1 
135.954833693 24.5303093535 -14.1118209136 0 0 1 
135.954833693 30.5303093535 -14.1424098076 0 0 1 
135.954833693 36.5303093535 -14.1061179512 0 0 1 
135.954833693 42.5303093535 -14.0029453444 0 0 1 
135.954833693 48.5303093535 -13.8765607496 0 0 1 
135.954833693 54.5303093535 -13.8219409702 0 0 1 
135.954833693 60.5303093535 -13.8423848251 0 0 1 
135.954833693 66.5303093535 -13.9378923142 0 0 1 
135.954833693 72.5303093535 -14.0855515310 0 0 1 
135.954833693 78.5303093535 -14.2259347637 0 0 1 
135.954833693 84.5303093535 -14.3559877240 0 0 1 
135.954833693 90.5303093535 -14.4757104118 0 0 1 
135.954833693 96.5303093535 -14.5776764170 0 0 1 
135.954833693 102.530309354 -14.6388891803 0 0 1 
135.954833693 108.530309354 -14.6577142913 0 0 1 
135.954833693 114.530309354 -14.6341517501 0 0 1 
135.954833693 120.530309354 -14.5737479747 0 0 1 
135.954833693 126.530309354 -14.4970783676 0 0 1 
135.954833693 132.530309354 -14.4060756261 0 0 1 
135.954833693 138.530309354 -14.3007397501 0 0 1 
135.954833693 144.530309354 -14.1885740447 0 0 1 
135.954833693 150.530309354 -14.1031238834 0 0 1 
135.954833693 156.530309354 -14.0484236429 0 0 1 
135.954833693 162.530309354 -14.0244733230 0 0 1 
135.954833693 168.530309354 -14.0374896353 0 0 1 
135.954833693 174.530309354 -14.1212663596 0 0 1 
135.954833693 180.530309354 -14.2808891988 0 0 1 
135.954833693 186.530309354 -14.5163581527 0 0 1 
135.954833693 192.530309354 -14.8170475190 0 0 1 
135.954833693 198.530309354 -15.1118495207 0 0 1 
135.954833693 204.530309354 -15.3875964845 0 0 1 
135.954833693 210.530309354 -15.6442884103 0 0 1 
135.954833693 216.530309354 -15.8613471975 0 0 1 
135.954833693 222.530309354 -15.8663418361 0 0 1 
135.954833693 228.530309354 -15.6204613861 0 0 1 
135.954833693 234.530309354 -15.1237058475 0 0 1 
135.954833693 240.530309354 -14.4085425061 0 0 1 
135.954833693 246.530309354 -13.8236045492 0 0 1 
135.954833693 252.530309354 -13.4634389618 0 0 1 
135.954833693 258.530309354 -13.3280457438 0 0 1 
135.954833693 264.530309354 -13.4041826866 0 0 1 
135.954833693 270.530309354 -13.5036847893 0 0 1 
135.954833693 276.530309354 -13.5654291973 0 0 1 
135.954833693 282.530309354 -13.5894159106 0 0 1 
135.954833693 288.530309354 -13.5914950584 0 0 1 
135.954833693 294.530309354 -13.8836786267 0 0 1 
141.954833693 -299.469690646 -2.08055214059 0 0 1 
141.954833693 -293.469690646 8.73625674893 0 0 1 
141.954833693 -287.469690646 17.1375472858 0 0 1 
141.954833693 -281.469690646 22.4060461744 0 0 1 
141.954833693 -275.469690646 24.5417534145 0 0 1 
141.954833693 -269.469690646 23.8540109134 0 0 1 
141.954833693 -263.469690646 22.5435338454 0 0 1 
141.954833693 -257.469690646 21.0412546511 0 0 1 
141.954833693 -251.469690646 19.3471733305 0 0 1 
141.954833693 -245.469690646 17.5154873321 0 0 1 
141.954833693 -239.469690646 16.0317833738 0 0 1 
141.954833693 -233.469690646 15.0113140849 0 0 1 
141.954833693 -227.469690646 14.4540794653 0 0 1 
141.954833693 -221.469690646 14.3332373234 0 0 1 
141.954833693 -215.469690646 14.3381368202 0 0 1 
141.954833693 -209.469690646 14.3801109599 0 0 1 
141.954833693 -203.469690646 14.4591597425 0 0 1 
141.954833693 -197.469690646 14.5567755867 0 0 1 
141.954833693 -191.469690646 14.3863283518 0 0 1 
141.954833693 -185.469690646 13.8499409031 0 0 1 
141.954833693 -179.469690646 12.9476132407 0 0 1 
141.954833693 -173.469690646 11.6719007745 0 0 1 
141.954833693 -167.469690646 9.86043658786 0 0 1 
141.954833693 -161.469690646 7.44706673027 0 0 1 
141.954833693 -155.469690646 4.43179120176 0 0 1 
141.954833693 -149.469690646 0.846770007904 0 0 1 
141.954833693 -143.469690646 -2.24021911953 0 0 1 
141.954833693 -137.469690646 -4.31028136245 0 0 1 
141.954833693 -131.469690646 -5.36341672088 0 0 1 
141.954833693 -125.469690646 -5.41231030710 0 0 1 
141.954833693 -119.469690646 -5.18697282389 0 0 1 
141.954833693 -113.469690646 -5.11138413557 0 0 1 
141.954833693 -107.469690646 -5.18554424213 0 0 1 
141.954833693 -101.469690646 -5.40987380734 0 0 1 
141.954833693 -95.4696906465 -5.83836076798 0 0 1 
141.954833693 -89.4696906465 -6.50865387235 0 0 1 
141.954833693 -83.4696906465 -7.42075312045 0 0 1 
141.954833693 -77.4696906465 -8.57420316152 0 0 1 
141.954833693 -71.4696906465 -9.71101512053 0 0 1 
141.954833693 -65.4696906465 -10.6134817295 0 0 1 
141.954833693 -59.4696906465 -11.2816029885 0 0 1 
141.954833693 -53.4696906465 -11.7153788975 0 0 1 
141.954833693 -47.4696906465 -12.0366420306 0 0 1 
141.954833693 -41.4696906465 -12.3712284871 0 0 1 
141.954833693 -35.4696906465 -12.7191464561 0 0 1 
141.954833693 -29.4696906465 -13.0803959374 0 0 1 
141.954833693 -23.4696906465 -13.4096814077 0 0 1 
