2.329019212 76.73663197 1.749195858 0 0 1 
2.326425907 79.14466454 1.842315568 0 0 1 
2.323689605 81.55306416 1.945437087 0 0 1 
2.320822005 83.96180091 2.05774505 0 0 1 
2.317835445 86.37084307 2.178375554 0 0 1 
2.31474341 88.78015598 2.306383929 0 0 1 
2.311563485 91.18969451 2.440540632 0 0 1 
2.308316823 93.5994044 2.579366093 0 0 1 
2.30503505 96.00920436 2.720645522 0 0 1 
2.301751206 98.41900946 2.862063812 0 0 1 
2.298492765 100.8287489 3.001692301 0 0 1 
2.295277989 103.2383756 3.138248991 0 0 1 
2.292092577 105.6479266 3.272741207 0 0 1 
2.288915386 108.0574564 3.406655551 0 0 1 
2.285732415 110.4670009 3.540968854 0 0 1 
2.282469455 112.9242873 3.679117133 0 0 1 
2.278791142 115.677674 3.835443897 0 0 1 
2.274034974 119.2188732 4.038245581 0 0 1 
2.266450017 124.8422193 4.362497409 0 0 1 
4.633714387 -119.0825735 15.60854662 0 0 1 
4.643961357 -115.5564095 14.76331857 0 0 1 
4.651908632 -112.8249631 14.10790639 0 0 1 
4.659015111 -110.3916434 13.5221767 0 0 1 
4.666028149 -108.0082003 12.94481963 0 0 1 
4.673148336 -105.6250302 12.36002132 0 0 1 
4.68044616 -103.2423126 11.76288817 0 0 1 
4.688019701 -100.8602974 11.14661004 0 0 1 
4.695930851 -98.47914191 10.50689902 0 0 1 
4.704068349 -96.09856106 9.85152893 0 0 1 
4.71226842 -93.71813571 9.191930698 0 0 1 
4.720330908 -91.33735393 8.542064385 0 0 1 
4.728053516 -88.95569838 7.916036447 0 0 1 
4.735262116 -86.57272394 7.325984149 0 0 1 
4.741787741 -84.18799882 6.783680707 0 0 1 
4.747453657 -81.80107179 6.301428627 0 0 1 
4.752086723 -79.41150099 5.8912739 0 0 1 
4.755536173 -77.01890218 5.563690143 0 0 1 
4.757718895 -74.62306432 5.324428433 0 0 1 
4.758802185 -72.2244169 5.161771297 0 0 1 
4.759048344 -69.82363271 5.057366991 0 0 1 
4.758848263 -67.42171437 4.983867009 0 0 1 
4.758590423 -65.01965863 4.914083768 0 0 1 
4.758522111 -62.61810111 4.830677832 0 0 1 
4.758814907 -60.21748302 4.721614218 0 0 1 
4.759478381 -57.81782785 4.586255856 0 0 1 
4.760463158 -55.41900705 4.428115064 0 0 1 
4.761647148 -53.02070428 4.25582887 0 0 1 
4.762885963 -50.62254533 4.07961339 0 0 1 
4.764019494 -48.22411438 3.910822633 0 0 1 
4.764895321 -45.82501564 3.760263565 0 0 1 
4.76540848 -43.42497762 3.635347303 0 0 1 
4.765486167 -41.02381311 3.541182352 0 0 1 
4.765137367 -38.62154932 3.47701902 0 0 1 
4.764394036 -36.21827299 3.440482631 0 0 1 
4.763296997 -33.81409123 3.428646084 0 0 1 
4.761890327 -31.40911832 3.438387512 0 0 1 
4.760222171 -29.00347676 3.466364209 0 0 1 
4.758339921 -26.59728627 3.509309961 0 0 1 
4.756283682 -24.19064676 3.564500236 0 0 1 
4.754094039 -21.78365893 3.629189278 0 0 1 
4.75182112 -19.37644735 3.699980335 0 0 1 
4.74954439 -16.96921119 3.771443344 0 0 1 
4.747453299 -14.56242964 3.830513561 0 0 1 
4.745773087 -12.15667426 3.861608489 0 0 1 
4.744760428 -9.752601613 3.846826341 0 0 1 
4.744671758 -7.350873599 3.768118385 0 0 1 
4.745729573 -4.95208492 3.609265075 0 0 1 
4.74805549 -2.556572438 3.361076737 0 0 1 
4.751392984 -0.163686003 3.041277993 0 0 1 
4.755325625 2.227639628 2.678912296 0 0 1 
4.75917846 4.619135121 2.321167878 0 0 1 
4.762293252 7.012490686 2.014130727 0 0 1 
4.764353202 9.408528264 1.780215005 0 0 1 
4.765209976 11.80763887 1.630085964 0 0 1 
4.765047507 14.20935825 1.551088197 0 0 1 
4.76414369 16.61298118 1.523996206 0 0 1 
4.76281149 19.01771608 1.527225871 0 0 1 
4.761338738 21.42283357 1.540889681 0 0 1 
4.75987242 23.82795265 1.554599826 0 0 1 
4.758502421 26.23283519 1.561865634 0 0 1 
4.757232745 28.6374624 1.562177291 0 0 1 
4.756045647 31.04187267 1.556583321 0 0 1 
4.754925068 33.44610682 1.546195753 0 0 1 
4.753855811 35.85020548 1.532119519 0 0 1 
4.75282446 38.25420569 1.515362326 0 0 1 
4.751818033 40.65814342 1.496902069 0 0 1 
4.750823447 43.06205389 1.477697247 0 0 1 
4.749827345 45.46597249 1.458712001 0 0 1 
4.748815351 47.86993623 1.44095467 0 0 1 
4.747772511 50.27398319 1.425463721 0 0 1 
4.74668257 52.6781543 1.41335512 0 0 1 
4.745528688 55.08249184 1.405782236 0 0 1 
4.744292996 57.48704076 1.403970297 0 0 1 
4.742957415 59.89184659 1.409161009 0 0 1 
4.741504118 62.29695458 1.422587019 0 0 1 
4.739916035 64.70240817 1.445432076 0 0 1 
4.738178989 67.10824371 1.478686173 0 0 1 
4.736280949 69.51449216 1.52319181 0 0 1 
4.734215689 71.9211696 1.579386927 0 0 1 
4.731980423 74.32828332 1.64747007 0 0 1 
4.729580393 76.73582011 1.727080675 0 0 1 
4.727023874 79.14375896 1.81764597 0 0 1 
4.724323039 81.55206866 1.918315725 0 0 1 
4.721490984 83.96071557 2.028173255 0 0 1 
4.718540393 86.36966693 2.146326773 0 0 1 
4.715484034 88.77888982 2.271879386 0 0 1 
4.712335466 91.18834957 2.403885597 0 0 1 
4.709110626 93.59800535 2.541232127 0 0 1 
4.70583452 96.00779243 2.682156107 0 0 1 
4.702534142 98.41764072 2.82474948 0 0 1 
4.69923486 100.8274839 2.967208463 0 0 1 
4.695954648 103.2372752 3.10825714 0 0 1 
4.692682253 105.6470448 3.248720655 0 0 1 
4.689401138 108.0568371 3.389799755 0 0 1 
4.686104773 110.4666691 3.531957327 0 0 1 
4.682724346 112.9242542 3.678251476 0 0 1 
4.678917978 115.677967 3.843471987 0 0 1 
4.674006075 119.2195631 4.057096555 0 0 1 
4.666189259 124.8435003 4.397464194 0 0 1 
7.034004969 -119.0826962 15.60515465 0 0 1 
7.044214961 -115.5564362 14.76254662 0 0 1 
7.05211862 -112.8248775 14.11020326 0 0 1 
7.059163521 -110.3913996 13.52878558 0 0 1 
7.066084882 -108.0077218 12.95783049 0 0 1 
7.073068562 -105.6242028 12.38254816 0 0 1 
7.080169379 -103.240982 11.799134 0 0 1 
7.08746859 -100.8582665 11.20194968 0 0 1 
7.095023618 -98.47620213 10.58701637 0 0 1 
7.102769532 -96.09462272 9.958868652 0 0 1 
7.110602906 -93.71326373 9.324718902 0 0 1 
7.118389064 -91.33178093 8.693953045 0 0 1 
7.125985791 -88.94981088 8.076480586 0 0 1 
7.133252159 -86.56699348 7.482119851 0 0 1 
7.140034394 -84.18293583 6.921583087 0 0 1 
7.146125667 -81.79710956 6.409276998 0 0 1 
7.151291726 -79.40891615 5.961521065 0 0 1 
7.155241598 -77.01761177 5.59859731 0 0 1 
7.157756278 -74.62263647 5.335774976 0 0 1 
7.15896509 -72.22432052 5.164048378 0 0 1 
7.159135321 -69.82334742 5.064779305 0 0 1 
7.158736607 -67.42092023 5.005156652 0 0 1 
7.158250624 -65.01827389 4.951497569 0 0 1 
7.158000905 -62.61624123 4.881080078 0 0 1 
7.158215671 -60.21541072 4.777846954 0 0 1 
7.158899051 -57.81579296 4.641509083 0 0 1 
7.159979019 -55.41720203 4.477140654 0 0 1 
7.161304807 -53.01924826 4.295376619 0 0 1 
7.162704392 -50.62148672 4.108361297 0 0 1 
7.164000495 -48.22345767 3.928645345 0 0 1 
7.165027325 -45.82473131 3.767963348 0 0 1 
7.165671206 -43.42501453 3.634314997 0 0 1 
7.165853182 -41.02410527 3.533213046 0 0 1 
7.165581706 -38.62203054 3.463912506 0 0 1 
7.164889851 -36.2188809 3.423933328 0 0 1 
7.163820463 -33.8147686 3.410208444 0 0 1 
7.162419722 -31.40981288 3.419481457 0 0 1 
7.160737282 -29.0041391 3.448333188 0 0 1 
7.158823543 -26.59787354 3.493320275 0 0 1 
7.156728354 -24.19113993 3.551069876 0 0 1 
7.154505539 -21.7840719 3.617939305 0 0 1 
7.15222573 -19.37684619 3.689110166 0 0 1 
7.149979674 -16.96969109 3.758357999 0 0 1 
7.147922834 -14.56300072 3.814936267 0 0 1 
7.146230308 -12.15722045 3.846700824 0 0 1 
7.145089893 -9.752831977 3.84051724 0 0 1 
7.144708209 -7.350371082 3.781776455 0 0 1 
7.145355679 -4.950557142 3.650865065 0 0 1 
7.147241547 -2.553951588 3.432475508 0 0 1 
7.150257072 -0.160275145 3.134219366 0 0 1 
7.154112436 2.231221821 2.776532322 0 0 1 
7.15810904 4.622335307 2.408381445 0 0 1 
7.161515872 7.01494473 2.081009581 0 0 1 
7.163899916 9.410168602 1.8249162 0 0 1 
7.165010709 11.80865677 1.657823135 0 0 1 
7.165033913 14.20993499 1.566802799 0 0 1 
7.164270649 16.61323263 1.530845246 0 0 1 
7.163035586 19.01774891 1.528116304 0 0 1 
7.161616076 21.42275185 1.538657817 0 0 1 
7.160172415 23.8278252 1.551122232 0 0 1 
7.158809467 26.23269269 1.557979888 0 0 1 
7.157538448 28.63732011 1.558300663 0 0 1 
7.156346073 31.04173793 1.552917104 0 0 1 
7.155217647 33.44598589 1.542910063 0 0 1 
7.15413863 35.85010472 1.529386486 0 0 1 
7.153096624 38.25412935 1.513296018 0 0 1 
7.152079746 40.658093 1.495541557 0 0 1 
7.151075927 43.0620279 1.477000841 0 0 1 
7.150072751 45.46596658 1.458559661 0 0 1 
7.149056542 47.86994374 1.441164201 0 0 1 
7.148012969 50.27399538 1.425796593 0 0 1 
7.14692634 52.67816058 1.413523208 0 0 1 
7.14578039 55.08247982 1.405448597 0 0 1 
7.144557932 57.48699609 1.402745136 0 0 1 
7.143241571 59.89175306 1.406603743 0 0 1 
7.141814041 62.29679458 1.418219207 0 0 1 
7.140258555 64.70216352 1.438759461 0 0 1 
7.138560166 67.10789852 1.469276459 0 0 1 
7.136705325 69.51403479 1.5107278 0 0 1 
7.134684313 71.92059767 1.563803633 0 0 1 
7.132490934 74.3276035 1.628947823 0 0 1 
7.130129528 76.73504155 1.705867449 0 0 1 
7.127608657 79.14289015 1.793971312 0 0 1 
7.124943031 81.55111131 1.892224791 0 0 1 
7.122148591 83.95966367 1.999502293 0 0 1 
7.119239722 86.36850968 2.11478171 0 0 1 
7.116229605 88.77761494 2.237126694 0 0 1 
7.113128093 91.1869541 2.365846649 0 0 1 
7.109945239 93.59650138 2.500238496 0 0 1 
7.106695569 96.00621916 2.639277653 0 0 1 
7.1033954 98.41606502 2.781809675 0 0 1 
7.100063644 100.8259895 2.926488485 0 0 1 
7.096715464 103.2359531 3.072239923 0 0 1 
7.093347432 105.6459662 3.21934204 0 0 1 
7.089953651 108.0560456 3.368250051 0 0 1 
7.08653835 110.4661807 3.518673001 0 0 1 
7.083040311 112.9240652 3.673135533 0 0 1 
7.07911183 115.6780888 3.846830187 0 0 1 
7.074057775 119.2200463 4.070311817 0 0 1 
7.066037195 124.8445012 4.424799998 0 0 1 
9.434622041 -119.0836565 15.57891737 0 0 1 
9.444764388 -115.5572214 14.74108895 0 0 1 
9.452610279 -112.8255134 14.09281854 0 0 1 
9.4595904 -110.3918688 13.51595214 0 0 1 
9.466423904 -108.0079655 12.95114774 0 0 1 
9.473273321 -105.6241028 12.38523588 0 0 1 
9.480166608 -103.2403519 11.8162779 0 0 1 
9.487151266 -100.8568334 11.24098472 0 0 1 
9.494267192 -98.47364872 10.6565953 0 0 1 
9.50150406 -96.09077138 10.06383009 0 0 1 
9.508832683 -93.70812691 9.464719015 0 0 1 
9.516198745 -91.32557665 8.863042906 0 0 1 
9.523533406 -88.94294474 8.263595183 0 0 1 
9.530734787 -86.55997087 7.673473848 0 0 1 
9.537668492 -84.17631155 7.102044372 0 0 1 
9.544102602 -81.79137392 6.565472667 0 0 1 
9.549747626 -79.40441771 6.083944534 0 0 1 
9.554180932 -77.01436146 5.686952526 0 0 1 
9.557053859 -74.62031248 5.398841833 0 0 1 
9.558451986 -72.2224878 5.213699001 0 0 1 
9.558637101 -69.8215556 5.113306496 0 0 1 
9.558140268 -67.4188757 5.060579153 0 0 1 
9.557520595 -65.01588123 5.016429009 0 0 1 
9.557175382 -62.613595 4.952951514 0 0 1 
9.557388875 -60.21275012 4.850141985 0 0 1 
9.558153142 -57.81332677 4.708538872 0 0 1 
9.559367073 -55.41506477 4.53523913 0 0 1 
9.560851655 -53.01750228 4.342845094 0 0 1 
9.562410823 -50.62013297 4.145173743 0 0 1 
9.563859404 -48.22247749 3.955309026 0 0 1 
9.565027727 -45.82409686 3.785233498 0 0 1 
9.565797871 -43.42468828 3.643209949 0 0 1 
9.566086169 -41.02403889 3.535044323 0 0 1 
9.565894832 -38.622161 3.460391578 0 0 1 
9.565252388 -36.21913449 3.417062647 0 0 1 
9.564205611 -33.8150813 3.401727216 0 0 1 
9.562806745 -31.41013534 3.410730595 0 0 1 
9.561111377 -29.00443573 3.440279748 0 0 1 
9.559176681 -26.59812457 3.486501349 0 0 1 
9.557062821 -24.19135077 3.545338259 0 0 1 
9.554835011 -21.7842761 3.612381396 0 0 1 
9.552575979 -19.37710801 3.681975557 0 0 1 
9.55038018 -16.97008465 3.747627852 0 0 1 
9.548371739 -14.56352198 3.800720907 0 0 1 
9.546682484 -12.15775675 3.832070486 0 0 1 
9.545444746 -9.753129315 3.832394429 0 0 1 
9.544826606 -7.350077251 3.789761674 0 0 1 
9.54514212 -4.949432604 3.681489668 0 0 1 
9.546673457 -2.55194334 3.487188027 0 0 1 
9.54941865 -0.157598127 3.207162987 0 0 1 
9.553177822 2.234128466 2.855736745 0 0 1 
9.55723754 4.625073554 2.482996568 0 0 1 
9.560819272 7.017240091 2.143552566 0 0 1 
9.563418661 9.411929006 1.872877207 0 0 1 
9.56472271 11.80994875 1.693016035 0 0 1 
9.564915999 14.21082343 1.590996037 0 0 1 
9.564308674 16.61375406 1.545033865 0 0 1 
9.56320099 19.01797125 1.534151728 0 0 1 
9.561865024 21.42277731 1.539327382 0 0 1 
9.56046715 23.82773882 1.548747046 0 0 1 
9.55912339 26.23255131 1.554113484 0 0 1 
9.557854358 28.63716158 1.553976692 0 0 1 
9.556654647 31.04158553 1.548769195 0 0 1 
9.55551303 33.44585674 1.539403038 0 0 1 
9.554417216 35.85001177 1.526870576 0 0 1 
9.553356712 38.25408052 1.511984114 0 0 1 
9.55232139 40.65809104 1.495506455 0 0 1 
9.551300686 43.0620709 1.478188164 0 0 1 
9.55028356 45.46604826 1.460797027 0 0 1 
9.549257435 47.87005435 1.444185345 0 0 1 
9.548208986 50.27412206 1.429250784 0 0 1 
9.547123403 52.67828784 1.416988399 0 0 1 
9.545985248 55.08258976 1.408437287 0 0 1 
9.544778059 57.48706875 1.404714584 0 0 1 
9.543485002 59.89176693 1.406968992 0 0 1 
9.542088798 62.29672817 1.416396237 0 0 1 
9.540572175 64.70199664 1.434199882 0 0 1 
9.538918373 67.10761591 1.461565271 0 0 1 
9.537111312 69.51362801 1.499636089 0 0 1 
9.535137178 71.92006934 1.549402209 0 0 1 
9.532985994 74.32696646 1.611584935 0 0 1 
9.530661335 76.73431091 1.685952378 0 0 1 
9.528172451 79.14207932 1.771867136 0 0 1 
9.525537546 81.55022417 1.868036149 0 0 1 
9.522776629 83.95869298 1.973031635 0 0 1 
9.519907467 86.36743883 2.085577894 0 0 1 
9.516945578 88.77642069 2.204559846 0 0 1 
9.513899507 91.18561619 2.329368264 0 0 1 
9.510774766 93.59501103 2.45961426 0 0 1 
9.507571792 96.00460454 2.595277769 0 0 1 
9.50429078 98.41439676 2.736358983 0 0 1 
9.500936467 100.824376 2.88253816 0 0 1 
9.497516128 103.234524 3.033316872 0 0 1 
9.49404268 105.6448079 3.187798594 0 0 1 
9.490531095 108.0551895 3.344940403 0 0 1 
9.486998743 110.4656239 3.503523068 0 0 1 
9.483392239 112.9237848 3.665522417 0 0 1 
9.479357914 115.6780772 3.846548813 0 0 1 
9.474186606 119.2203317 4.078134247 0 0 1 
9.466004628 124.8451948 4.443760567 0 0 1 
11.83551456 -119.0853243 15.53337911 0 0 1 
11.8455497 -115.5586121 14.7031141 0 0 1 
11.8533131 -112.8266911 14.0606597 0 0 1 
11.8602116 -110.392836 13.48953711 0 0 1 
11.86694329 -108.0086708 12.93187708 0 0 1 
11.87363933 -105.6244149 12.37669021 0 0 1 
11.88029197 -103.2400484 11.82451802 0 0 1 
11.88690582 -100.855583 11.2750448 0 0 1 
11.89349677 -98.47105885 10.72717043 0 0 1 
11.90011342 -96.08660035 10.17750737 0 0 1 
11.90680804 -93.70234111 9.622411098 0 0 1 
11.91361465 -91.31836797 9.059512895 0 0 1 
11.92054426 -88.93470899 8.488048072 0 0 1 
11.92753378 -86.55120274 7.912418017 0 0 1 
11.9344677 -84.16755379 7.340678587 0 0 1 
11.94109452 -81.78311878 6.790374236 0 0 1 
11.94708503 -79.3970553 6.284477387 0 0 1 
11.95193466 -77.00807163 5.858216217 0 0 1 
11.95521009 -74.61505776 5.541864154 0 0 1 
11.95694394 -72.21809493 5.33321172 0 0 1 
11.95736284 -69.81776119 5.216498868 0 0 1 
11.95700222 -67.41542777 5.154328436 0 0 1 
11.95644486 -65.01258867 5.105951639 0 0 1 
11.95614956 -62.61042396 5.039176385 0 0 1 
11.95645651 -60.20980975 4.930098961 0 0 1 
11.95735253 -57.81071282 4.779623344 0 0 1 
11.95871631 -55.41282132 4.596254641 0 0 1 
11.96035071 -53.01562718 4.393853291 0 0 1 
11.96204588 -50.61858917 4.18718652 0 0 1 
11.96361834 -48.22123318 3.989193259 0 0 1 
11.96490261 -45.82313194 3.811533747 0 0 1 
11.965779 -43.42397941 3.66255712 0 0 1 
11.96615935 -41.02355259 3.548343902 0 0 1 
11.96603625 -38.62184108 3.469167139 0 0 1 
11.96543116 -36.21890815 3.423291319 0 0 1 
11.96439935 -33.81489675 3.406814092 0 0 1 
11.96300489 -31.40996956 3.415298368 0 0 1 
11.96131237 -29.0042869 3.44437515 0 0 1 
11.95938678 -26.59800893 3.489681264 0 0 1 
11.95729386 -24.19129754 3.546806494 0 0 1 
11.95510289 -21.78432378 3.611090403 0 0 1 
11.95289648 -19.37729436 3.676899446 0 0 1 
11.95076349 -16.97043315 3.738129893 0 0 1 
11.94880417 -14.56399712 3.78777126 0 0 1 
11.94712355 -12.1582569 3.818440857 0 0 1 
11.94583432 -9.753504178 3.822181002 0 0 1 
11.94509268 -7.350146795 3.787869868 0 0 1 
11.94522517 -4.94904619 3.692022995 0 0 1 
11.94653565 -2.551002693 3.5128226 0 0 1 
11.94905581 -0.156089427 3.248274304 0 0 1 
11.95262252 2.236126288 2.910173832 0 0 1 
11.95655905 4.627388557 2.546073779 0 0 1 
11.96011529 7.019628182 2.208617772 0 0 1 
11.96278127 9.414159961 1.933656005 0 0 1 
11.96422647 11.81183616 1.744427856 0 0 1 
11.96460503 14.21225699 1.630034174 0 0 1 
11.96419361 16.6147066 1.570958097 0 0 1 
11.96326034 19.01849362 1.548349514 0 0 1 
11.9620516 21.42298188 1.544864828 0 0 1 
11.96073337 23.82773695 1.548664659 0 0 1 
11.95942892 26.23243578 1.55094585 0 0 1 
11.95817081 28.63700052 1.549582761 0 0 1 
11.95696541 31.04142334 1.544357439 0 0 1 
11.95580764 33.4457245 1.535816335 0 0 1 
11.95468957 35.84993025 1.524670817 0 0 1 
11.95360375 38.25406184 1.51149785 0 0 1 
11.95254266 40.6581394 1.496845684 0 0 1 
11.95149785 43.06218398 1.481287531 0 0 1 
11.95046019 45.46621782 1.46543128 0 0 1 
11.94941871 47.87026748 1.450001778 0 0 1 
11.9483615 50.27436169 1.435783754 0 0 1 
11.94727492 52.67853367 1.423684678 0 0 1 
11.94614451 55.08281877 1.414669577 0 0 1 
11.94495443 57.48725623 1.409810329 0 0 1 
11.94368815 59.89188734 1.41023295 0 0 1 
11.94232776 62.2967574 1.417173204 0 0 1 
11.94085484 64.70191353 1.431914886 0 0 1 
11.9392501 67.10740589 1.455823008 0 0 1 
11.93749425 69.51328499 1.490272483 0 0 1 
11.93556891 71.91959974 1.536591438 0 0 1 
11.93345991 74.32638828 1.595815925 0 0 1 
11.93116951 76.73364588 1.667814474 0 0 1 
11.92870726 79.14134846 1.751930045 0 0 1 
11.92609516 81.54943789 1.846581979 0 0 1 
11.92335798 83.95784843 1.949983906 0 0 1 
11.92051842 86.36651979 2.060497146 0 0 1 
11.9175965 88.77539882 2.176677412 0 0 1 
11.91460323 91.18445637 2.297732362 0 0 1 
11.9115426 93.59368191 2.423375879 0 0 1 
11.90839909 96.00311667 2.554728143 0 0 1 
11.90515269 98.41281408 2.69323989 0 0 1 
11.90178577 100.8228218 2.840204181 0 0 1 
11.89829202 103.2331579 2.996108245 0 0 1 
11.89470974 105.6437222 3.158230204 0 0 1 
11.89108531 108.0543937 3.323272076 0 0 1 
11.88744969 110.4650921 3.489052705 0 0 1 
11.8837555 112.923476 3.657131674 0 0 1 
11.87964268 115.6779666 3.84356992 0 0 1 
11.87439007 119.2204256 4.080737087 0 0 1 
11.86610208 124.8455545 4.453623002 0 0 1 
14.23663099 -119.0875683 15.47211804 0 0 1 
14.24650595 -115.5604427 14.65313852 0 0 1 
14.25414558 -112.8282024 14.01939742 0 0 1 
14.26092641 -110.3940441 13.45654722 0 0 1 
14.2675219 -108.0095288 12.90844265 0 0 1 
14.27402858 -105.6247871 12.36650596 0 0 1 
14.28039826 -103.2396963 11.83408709 0 0 1 
14.28658198 -100.8541318 11.31457956 0 0 1 
14.29256308 -98.46805154 10.80912927 0 0 1 
14.2984554 -96.08174624 10.30980983 0 0 1 
14.30440181 -93.69558069 9.80667561 0 0 1 
14.31053036 -91.30988158 9.290819923 0 0 1 
14.31693428 -88.92488668 8.755760271 0 0 1 
14.32358185 -86.54051446 8.203721136 0 0 1 
14.33036894 -84.15649821 7.64197601 0 0 1 
14.33702636 -81.77214886 7.089316732 0 0 1 
14.34320097 -79.38656234 6.57039841 0 0 1 
14.34836869 -76.99839649 6.121825856 0 0 1 
14.35207089 -74.60647639 5.775643756 0 0 1 
14.35428733 -72.21074838 5.533318869 0 0 1 
14.35518616 -69.81164143 5.383155924 0 0 1 
14.35524964 -67.41039131 5.291449773 0 0 1 
14.35502311 -65.00839632 5.220060555 0 0 1 
14.35498573 -62.60688769 5.135403544 0 0 1 
14.35550755 -60.20681691 5.011523116 0 0 1 
14.35658441 -57.8081736 4.848700009 0 0 1 
14.35809836 -55.41065466 4.655199703 0 0 1 
14.35985424 -53.01375753 4.444731897 0 0 1 
14.36164558 -50.61695018 4.231810215 0 0 1 
14.36329946 -48.21978637 4.028611054 0 0 1 
14.36466007 -45.8218645 3.846091968 0 0 1 
14.36560654 -43.42287607 3.692667258 0 0 1 
14.36604579 -41.02258652 3.574731295 0 0 1 
14.36596161 -38.62096587 3.493089344 0 0 1 
14.3653706 -36.2180674 3.446276926 0 0 1 
14.36434307 -33.81407148 3.429373157 0 0 1 
14.36296109 -31.4091849 3.436740974 0 0 1 
14.36129885 -29.00359016 3.463409603 0 0 1 
14.35942695 -26.59745966 3.504683602 0 0 1 
14.35740957 -24.19095003 3.556298389 0 0 1 
14.35531094 -21.78421842 3.613973168 0 0 1 
14.35320204 -19.37744087 3.672912061 0 0 1 
14.35115768 -16.97080498 3.728001057 0 0 1 
14.34926118 -14.56452612 3.773362982 0 0 1 
14.34760573 -12.15884704 3.802372993 0 0 1 
14.34631616 -9.754093423 3.806144182 0 0 1 
14.34556003 -7.350703703 3.772717255 0 0 1 
14.34564683 -4.949491271 3.679914848 0 0 1 
14.34685514 -2.551187087 3.507808813 0 0 1 
14.34918759 -0.155790093 3.25643111 0 0 1 
14.35247305 2.237151578 2.938105063 0 0 1 
14.35611725 4.62917028 2.594612867 0 0 1 
14.35946483 7.021953522 2.271966801 0 0 1 
14.36205576 9.416686759 2.002490594 0 0 1 
14.36358012 11.81416812 1.807947121 0 0 1 
14.36413928 14.21413267 1.681113691 0 0 1 
14.36394336 16.61603468 1.607110311 0 0 1 
14.36321473 19.01929767 1.570221038 0 0 1 
14.36216593 21.42337009 1.55540888 0 0 1 
14.36095598 23.82783545 1.551323879 0 0 1 
14.3597106 26.23236597 1.549033101 0 0 1 
14.35847486 28.63685634 1.545658322 0 0 1 
14.35726886 31.04126811 1.540142621 0 0 1 
14.3560954 33.445602 1.532500439 0 0 1 
14.3549525 35.84986866 1.523017287 0 0 1 
14.35383675 38.25407773 1.511955454 0 0 1 
14.35274405 40.65823926 1.499588988 0 0 1 
14.35166879 43.06236597 1.48626548 0 0 1 
14.35060447 45.46647261 1.47238829 0 0 1 
14.34954235 47.87057949 1.458513047 0 0 1 
14.34847255 50.27470989 1.445275582 0 0 1 
14.34738287 52.67889325 1.433480825 0 0 1 
14.34625997 55.08316209 1.424016536 0 0 1 
14.34508834 57.48755483 1.417932363 0 0 1 
14.34385131 59.89211307 1.416363199 0 0 1 
14.34252984 62.29688499 1.420623653 0 0 1 
14.34110373 64.70192198 1.432115047 0 0 1 
14.33955074 67.10728162 1.452405254 0 0 1 
14.33784806 69.5130236 1.483118358 0 0 1 
14.33597258 71.91920968 1.525932133 0 0 1 
14.33390563 74.32589041 1.582218247 0 0 1 
14.33164723 76.73306725 1.652013198 0 0 1 
14.32920618 79.14071803 1.734711409 0 0 1 
14.32660772 81.54877524 1.828479691 0 0 1 
14.32388099 83.95716079 1.931196432 0 0 1 
14.32105359 86.36580152 2.040873567 0 0 1 
14.31815031 88.77463191 2.15573007 0 0 1 
14.31518599 91.18361298 2.274705239 0 0 1 
14.31216535 93.59273237 2.397463846 0 0 1 
14.30906171 96.00206053 2.525920451 0 0 1 
14.30583995 98.41169018 2.662596243 0 0 1 
14.30246419 100.8217169 2.810086413 0 0 1 
14.2989167 103.2321886 2.969691774 0 0 1 
14.29525681 105.6429504 3.137198458 0 0 1 
14.29155652 108.0538142 3.307488787 0 0 1 
14.28785618 110.4646759 3.477726502 0 0 1 
14.28411162 112.9231858 3.649248141 0 0 1 
14.27995841 115.6777766 3.838422509 0 0 1 
14.27466851 119.2203271 4.078094958 0 0 1 
14.26633745 124.8455608 4.453850065 0 0 1 
16.63792079 -119.0902599 15.39864318 0 0 1 
16.64756941 -115.5625505 14.59559457 0 0 1 
16.65502696 -112.8298413 13.97464943 0 0 1 
16.66163348 -110.3952348 13.42402921 0 0 1 
16.66803566 -108.010223 12.88946601 0 0 1 
16.6742977 -105.6248542 12.36463703 0 0 1 
16.68033166 -103.238904 11.85565483 0 0 1 
16.68602478 -100.8520857 11.37033311 0 0 1 
16.69131887 -98.46425185 10.91269076 0 0 1 
16.6963998 -96.07587698 10.46979002 0 0 1 
16.70151044 -93.68758074 10.02473725 0 0 1 
16.70687626 -91.29993843 9.561849491 0 0 1 
16.71267167 -88.91339471 9.069004075 0 0 1 
16.7188829 -86.5279136 8.547184687 0 0 1 
16.7254036 -84.14322235 8.003830405 0 0 1 
16.73194509 -81.75858159 7.459105888 0 0 1 
16.73814333 -79.37305897 6.938438174 0 0 1 
16.74351554 -76.98541788 6.475553828 0 0 1 
16.74763857 -74.59457427 6.100018511 0 0 1 
16.75045102 -72.20036997 5.816147777 0 0 1 
16.75205333 -69.80306155 5.61694452 0 0 1 
16.75283108 -67.40363766 5.475442166 0 0 1 
16.75323732 -65.00326042 5.359942197 0 0 1 
16.75370658 -62.60304551 5.240012672 0 0 1 
16.7545875 -60.20388832 5.091230928 0 0 1 
16.75589972 -57.80583935 4.912218164 0 0 1 
16.75755904 -55.40868221 4.708874534 0 0 1 
16.75939796 -53.01198579 4.492959796 0 0 1 
16.76123467 -50.61528194 4.277243551 0 0 1 
16.7629151 -48.21817332 4.072566692 0 0 1 
16.76429733 -45.82029424 3.888905908 0 0 1 
16.76526009 -43.42133475 3.734714522 0 0 1 
16.76570641 -41.02105052 3.616651888 0 0 1 
16.76561672 -38.6194067 3.535653796 0 0 1 
16.76500924 -36.21646422 3.490044037 0 0 1 
16.76397578 -33.81245732 3.473435551 0 0 1 
16.76262119 -31.40764869 3.478669731 0 0 1 
16.76102702 -29.00223728 3.500329859 0 0 1 
16.75926478 -26.59639565 3.533718694 0 0 1 
16.75738916 -24.19025506 3.575264011 0 0 1 
16.75545051 -21.78393649 3.621672589 0 0 1 
16.75349925 -19.37756209 3.669618917 0 0 1 
16.75158991 -16.97126684 3.715424361 0 0 1 
16.74979408 -14.56523719 3.754000055 0 0 1 
16.74820326 -12.1597135 3.778783602 0 0 1 
16.7469728 -9.755103223 3.77865621 0 0 1 
16.74629392 -7.35190782 3.739935901 0 0 1 
16.74643782 -4.950838981 3.643214221 0 0 1 
16.74762646 -2.552478499 3.472627597 0 0 1 
16.74979574 -0.156654526 3.232868804 0 0 1 
16.75274003 2.237171729 2.938636782 0 0 1 
16.75597391 4.630252434 2.624078165 0 0 1 
16.75897591 7.02393043 2.325810625 0 0 1 
16.76137172 9.419168714 2.070093563 0 0 1 
16.76289896 11.81664123 1.875304404 0 0 1 
16.76360013 14.21623406 1.738337626 0 0 1 
16.76360556 16.61760656 1.649905949 0 0 1 
16.76308441 19.02031885 1.59801633 0 0 1 
16.76220923 21.42392281 1.570451309 0 0 1 
16.7611254 23.8280417 1.556940376 0 0 1 
16.75995514 26.23236154 1.548922707 0 0 1 
16.75875408 28.63675155 1.542823536 0 0 1 
16.75755535 31.04114008 1.536680097 0 0 1 
16.75637007 33.44550466 1.529875332 0 0 1 
16.75520288 35.8498367 1.522172614 0 0 1 
16.7540551 38.2541325 1.513471384 0 0 1 
16.75292671 40.65839064 1.503734134 0 0 1 
16.75181574 43.06261394 1.493038769 0 0 1 
16.75071909 45.46680789 1.481536832 0 0 1 
16.74963118 47.87098463 1.469561278 0 0 1 
16.74854494 50.27516024 1.457551463 0 0 1 
16.74744994 52.67935981 1.44619322 0 0 1 
16.74633406 55.08361305 1.436297606 0 0 1 
16.74518165 57.48795898 1.428930332 0 0 1 
16.74397534 59.89244121 1.425281376 0 0 1 
16.74269434 62.29711219 1.426782538 0 0 1 
16.7413163 64.70202868 1.434981805 0 0 1 
16.73981591 67.10725561 1.451649191 0 0 1 
16.73816683 69.51286142 1.478647572 0 0 1 
16.73634138 71.91892007 1.517986079 0 0 1 
16.73431631 74.32549448 1.57137245 0 0 1 
16.73208803 76.73259551 1.639098363 0 0 1 
16.72966308 79.14020678 1.720716279 0 0 1 
16.72706865 81.54825487 1.814233446 0 0 1 
16.72433698 83.95665294 1.91729176 0 0 1 
16.72149883 86.3653201 2.027691558 0 0 1 
16.71858201 88.77418375 2.143456702 0 0 1 
16.71560384 91.18319931 2.263373192 0 0 1 
16.7125709 93.5923502 2.386988983 0 0 1 
16.70945639 96.00170644 2.516208835 0 0 1 
16.70622441 98.41136179 2.653584927 0 0 1 
16.70283733 100.8214148 2.801796995 0 0 1 
16.69927639 103.231915 2.962193943 0 0 1 
16.69560383 105.6427017 3.130398027 0 0 1 
16.69189502 108.0535802 3.301107591 0 0 1 
16.688191 110.4644453 3.471451605 0 0 1 
16.68444768 112.9229472 3.642767387 0 0 1 
16.68030066 115.6775181 3.831409262 0 0 1 
16.67502312 119.2200331 4.070122095 0 0 1 
16.66671667 124.8451992 4.444044728 0 0 1 
19.03933815 -119.0932823 15.3161333 0 0 1 
19.04868701 -115.5648003 14.53417074 0 0 1 
19.05589197 -112.8314412 13.9309578 0 0 1 
19.06224748 -110.3961902 13.3979203 0 0 1 
19.06836962 -108.0104607 12.88293237 0 0 1 
19.0742971 -105.6242356 12.38145218 0 0 1 
19.07991172 -103.2372134 11.90170076 0 0 1 
19.0850464 -100.8489685 11.4552775 0 0 1 
19.08960789 -98.45926383 11.04864115 0 0 1 
19.09384891 -96.06874476 10.66419847 0 0 1 
19.09810495 -93.67826764 10.27860219 0 0 1 
19.10269514 -91.28864693 9.869648001 0 0 1 
19.10786998 -88.90052165 9.419915433 0 0 1 
19.11362028 -86.51386701 8.930083922 0 0 1 
19.11982479 -84.12837164 8.408646864 0 0 1 
19.12617403 -81.74324244 7.877235473 0 0 1 
19.13230049 -79.3575379 7.361527323 0 0 1 
19.13779407 -76.97020741 6.890175734 0 0 1 
19.14230087 -74.58034442 6.487905262 0 0 1 
19.14573739 -72.18773508 6.160547228 0 0 1 
19.14814613 -69.79248855 5.905122728 0 0 1 
19.14980301 -67.39531298 5.702313912 0 0 1 
19.15104457 -64.99707204 5.528561873 0 0 1 
19.15221391 -62.59864627 5.359849321 0 0 1 
19.15359478 -60.20076386 5.176314765 0 0 1 
19.1552237 -57.80351856 4.975399888 0 0 1 
19.15705454 -55.4067918 4.760337284 0 0 1 
19.15895967 -53.01025539 4.540078417 0 0 1 
19.16079536 -50.61353944 4.324712348 0 0 1 
19.16243618 -48.21632051 4.123062768 0 0 1 
19.16376322 -45.8182922 3.943488552 0 0 1 
19.16466527 -43.41916944 3.793764288 0 0 1 
19.16505198 -41.01872444 3.680098227 0 0 1 
19.16490995 -38.61694045 3.602930883 0 0 1 
19.16426621 -36.21390331 3.559905221 0 0 1 
19.16323276 -33.8098983 3.543243542 0 0 1 
19.16193357 -31.40523573 3.544490793 0 0 1 
19.16045344 -29.00012107 3.558054124 0 0 1 
19.15886042 -26.59471649 3.579521811 0 0 1 
19.1571951 -24.18911643 3.606326305 0 0 1 
19.15548969 -21.78339479 3.636458542 0 0 1 
19.15377092 -19.37761224 3.668269631 0 0 1 
19.15207173 -16.97184795 3.699603635 0 0 1 
19.15045644 -14.56627057 3.725855308 0 0 1 
19.1490186 -12.16112716 3.740279061 0 0 1 
19.1479387 -9.756892014 3.729930449 0 0 1 
19.14742228 -7.354104941 3.68007941 0 0 1 
19.14768638 -4.953335938 3.575177354 0 0 1 
19.1488826 -2.554983347 3.404360352 0 0 1 
19.15088194 -0.158709688 3.176840314 0 0 1 
19.15344977 2.236096459 2.909300712 0 0 1 
19.15621322 4.630396755 2.627970947 0 0 1 
19.15878938 7.025176563 2.359725015 0 0 1 
19.16090004 9.421149192 2.124016441 0 0 1 
19.16234196 11.81883404 1.935010605 0 0 1 
19.16310961 14.21824022 1.792957454 0 0 1 
19.16326224 16.61921022 1.693563664 0 0 1 
19.16291653 19.0214409 1.62856273 0 0 1 
19.16220273 21.42459607 1.588787062 0 0 1 
19.16124615 23.82835811 1.565571256 0 0 1 
19.16015865 26.23244661 1.551263186 0 0 1 
19.1590019 28.63671508 1.54185908 0 0 1 
19.15781868 31.04106463 1.534654152 0 0 1 
19.15662746 33.44545034 1.528421942 0 0 1 
19.15543918 35.84984388 1.522390868 0 0 1 
19.15425985 38.25422799 1.516091699 0 0 1 
19.15309369 40.65858943 1.509165028 0 0 1 
19.15194297 43.06291973 1.501382536 0 0 1 
19.15080887 45.46721338 1.492594897 0 0 1 
19.14969007 47.87147168 1.482839578 0 0 1 
19.14858343 50.275701 1.472290796 0 0 1 
19.1474808 52.67992114 1.461489389 0 0 1 
19.14637137 55.08415902 1.451169876 0 0 1 
19.14523858 57.48845657 1.442476333 0 0 1 
19.1440634 59.892862 1.4367244 0 0 1 
19.14282286 62.29743346 1.435501003 0 0 1 
19.14149217 64.7022337 1.440518648 0 0 1 
19.14004333 67.10733392 1.453719119 0 0 1 
19.1384469 69.51280969 1.477162034 0 0 1 
19.13667088 71.91874571 1.513149495 0 0 1 
19.13468724 74.32521676 1.563712669 0 0 1 
19.13248737 76.73224636 1.629489182 0 0 1 
19.13007383 79.13982814 1.710304287 0 0 1 
19.1274746 81.54788658 1.804108045 0 0 1 
19.1247238 83.95633013 1.90841392 0 0 1 
19.12185351 86.36507558 2.020955975 0 0 1 
19.11889275 88.77404858 2.139707988 0 0 1 
19.11585991 91.1832028 2.263405628 0 0 1 
19.11276451 93.5925147 2.39140546 0 0 1 
19.10959049 96.00202545 2.524830247 0 0 1 
19.106315 98.41179343 2.665271761 0 0 1 
19.10291468 100.821878 2.81434958 0 0 1 
19.09937975 103.232304 2.972743019 0 0 1 
19.09575794 105.6429506 3.137153978 0 0 1 
19.09210644 108.0536731 3.303631652 0 0 1 
19.0884586 110.4643868 3.469867177 0 0 1 
19.08476719 112.9227503 3.63742354 0 0 1 
19.08067216 115.677184 3.822336526 0 0 1 
19.07545575 119.2195391 4.056698971 0 0 1 
19.0672401 124.8444692 4.424195835 0 0 1 
21.44084008 -119.0965263 15.22756867 0 0 1 
21.44981296 -115.5670754 14.47204757 0 0 1 
21.45668844 -112.832869 13.89195208 0 0 1 
21.46270291 -110.3967431 13.38277874 0 0 1 
21.46843573 -108.010017 12.89496842 0 0 1 
21.47390996 -105.6226337 12.4250693 0 0 1 
21.47899499 -103.2342595 11.98217589 0 0 1 
21.48350297 -100.8444145 11.57937654 0 0 1 
21.48733128 -98.45283642 11.22382117 0 0 1 
21.49077735 -96.06028541 10.89478306 0 0 1 
21.49423967 -93.6677798 10.56449707 0 0 1 
21.49811921 -91.27634383 10.20503715 0 0 1 
21.5027342 -88.8867899 9.794254889 0 0 1 
21.50806724 -86.49907159 9.333420825 0 0 1 
21.51397108 -84.11281026 8.832865177 0 0 1 
21.52011546 -81.72715914 8.315683411 0 0 1 
21.52613244 -79.34117521 7.807595383 0 0 1 
21.53168801 -76.95400274 7.331939352 0 0 1 
21.53650535 -74.56493275 6.908050778 0 0 1 
21.54050403 -72.17375992 6.541526592 0 0 1 
21.54369515 -69.7805137 6.231560487 0 0 1 
21.54625943 -67.38565861 5.965478196 0 0 1 
21.54842162 -64.98977201 5.727529543 0 0 1 
21.55041119 -62.59344283 5.501650111 0 0 1 
21.55241799 -60.19715827 5.274551025 0 0 1 
21.55446659 -57.8009815 5.044508003 0 0 1 
21.5565252 -55.40483096 4.813744284 0 0 1 
21.55850304 -53.00847351 4.588618207 0 0 1 
21.56029836 -50.61164759 4.376263722 0 0 1 
21.5618254 -48.21413221 4.182709302 0 0 1 
21.56300259 -45.81571714 4.013690082 0 0 1 
21.5637488 -43.41619401 3.874888837 0 0 1 
21.564 -41.0154018 3.770694297 0 0 1 
21.5637613 -38.61337004 3.700285553 0 0 1 
21.56307509 -36.21022299 3.660259452 0 0 1 
21.56206388 -33.80627331 3.642091123 0 0 1 
21.5608587 -31.40184991 3.636818761 0 0 1 
21.55954206 -28.99715229 3.639012605 0 0 1 
21.55817556 -26.59232563 3.644724331 0 0 1 
21.55678579 -24.18742799 3.652378869 0 0 1 
21.55538816 -21.78248976 3.661154445 0 0 1 
21.55398884 -19.37751906 3.670834056 0 0 1 
21.55260263 -16.97254886 3.680521249 0 0 1 
21.5512892 -14.56773681 3.685909987 0 0 1 
21.55014066 -12.16332701 3.68033358 0 0 1 
21.54933491 -9.759787096 3.651029245 0 0 1 
21.54906241 -7.357617429 3.584341398 0 0 1 
21.54947502 -4.957218333 3.469346619 0 0 1 
21.55065618 -2.558811222 3.300004027 0 0 1 
21.55244894 -0.161988774 3.087430283 0 0 1 
21.5546237 2.233844881 2.847886024 0 0 1 
21.55690541 4.629397947 2.600692368 0 0 1 
21.55902549 7.025359957 2.364660055 0 0 1 
21.56078989 9.422225181 2.153273393 0 0 1 
21.56205211 11.8203647 1.976656537 0 0 1 
21.56278234 14.21984909 1.836737881 0 0 1 
21.56299487 16.62063668 1.732383198 0 0 1 
21.56276197 19.02254171 1.65852498 0 0 1 
21.5621733 21.42533719 1.608969208 0 0 1 
21.5613286 23.82877919 1.577052162 0 0 1 
21.56032221 26.23263934 1.556534682 0 0 1 
21.55921541 28.63677179 1.543429749 0 0 1 
21.55805525 31.04106418 1.534665851 0 0 1 
21.5568652 33.44545447 1.528553608 0 0 1 
21.5556612 35.84989747 1.523864216 0 0 1 
21.55445316 38.2543637 1.519797544 0 0 1 
21.55324917 40.6588287 1.515689604 0 0 1 
21.55205609 43.06327188 1.510981236 0 0 1 
21.55088005 45.46767499 1.505176267 0 0 1 
21.54972544 47.87202525 1.497927137 0 0 1 
21.5485944 50.27631607 1.489054432 0 0 1 
21.54748176 52.68056061 1.478916698 0 0 1 
21.54637816 55.08478292 1.468169398 0 0 1 
21.54526498 57.48903104 1.458121828 0 0 1 
21.54412028 59.89336133 1.450311027 0 0 1 
21.54291845 62.29783897 1.44651523 0 0 1 
21.54163227 64.70253294 1.448617089 0 0 1 
21.54023183 67.1075186 1.458672978 0 0 1 
21.53868547 69.51287603 1.478868138 0 0 1 
21.53695721 71.91869829 1.511736456 0 0 1 
21.53501415 74.32507077 1.559601811 0 0 1 
21.53284115 76.73203275 1.62353333 0 0 1 
21.53043511 79.13959197 1.703741429 0 0 1 
21.52782391 81.54767451 1.798216761 0 0 1 
21.52504273 83.95618779 1.904441162 0 0 1 
21.52212367 86.3650503 2.02019107 0 0 1 
21.51909564 88.77418939 2.143483688 0 0 1 
21.51597776 91.18355761 2.273021604 0 0 1 
21.5127839 93.59312039 2.40786111 0 0 1 
21.50951671 96.00286979 2.547789275 0 0 1 
21.50617622 98.41280388 2.692758099 0 0 1 
21.50276386 100.8229166 2.842608942 0 0 1 
21.4992853 103.233192 2.996911628 0 0 1 
21.49576241 105.6435773 3.154217902 0 0 1 
21.49222002 108.0540127 3.312891342 0 0 1 
21.48867741 110.4644507 3.471627167 0 0 1 
21.4850813 112.9225657 3.632419127 0 0 1 
21.48107915 115.6767584 3.810769613 0 0 1 
21.47596858 119.21884 4.03768244 0 0 1 
21.46790543 124.8433776 4.394481189 0 0 1 
23.84239036 -119.0998998 15.13545834 0 0 1 
23.85092034 -115.5693075 14.41108624 0 0 1 
23.85740243 -112.8340892 13.85859964 0 0 1 
23.8630007 -110.3968952 13.37856157 0 0 1 
23.86824981 -108.0089304 12.92453662 0 0 1 
23.87316521 -105.6201181 12.49360119 0 0 1 
23.87762447 -103.2301455 12.09428665 0 0 1 
23.88147391 -100.8386184 11.73734789 0 0 1 
23.88464339 -98.44535622 11.42771341 0 0 1 
23.88742998 -96.05111854 11.14466806 0 0 1 
23.89023815 -93.65694002 10.85999998 0 0 1 
23.8935338 -91.26401147 10.54123944 0 0 1 
23.89769409 -88.87329631 10.16211898 0 0 1 
23.90267698 -86.48468457 9.72564406 0 0 1 
23.90829462 -84.09769309 9.244996332 0 0 1 
23.91419665 -81.71142322 8.74468763 0 0 1 
23.92002094 -79.32494644 8.250042075 0 0 1 
23.92552296 -76.93763611 7.7781506 0 0 1 
23.93052119 -74.54902735 7.341691317 0 0 1 
23.93496874 -72.15900118 6.943904981 0 0 1 
23.93887411 -69.76758088 6.584152888 0 0 1 
23.94233229 -67.37501165 6.255742184 0 0 1 
23.94545639 -64.98158498 5.950717577 0 0 1 
23.94834436 -62.58755285 5.662204335 0 0 1 
23.9510689 -60.19310219 5.385101598 0 0 1 
23.95361592 -57.79819711 5.120386859 0 0 1 
23.95594483 -55.40273362 4.870894613 0 0 1 
23.95799665 -53.00656048 4.640749544 0 0 1 
23.95971306 -50.60952802 4.434034011 0 0 1 
23.96105724 -48.21154152 4.253331351 0 0 1 
23.96199771 -45.81252002 4.100851171 0 0 1 
23.9625025 -43.41238151 3.978829757 0 0 1 
23.96255257 -41.0110797 3.888527534 0 0 1 
23.96218186 -38.60871451 3.827207911 0 0 1 
23.96145236 -36.20545715 3.790190373 0 0 1 
23.96048536 -33.80161784 3.769016591 0 0 1 
23.95940527 -31.39751008 3.755143201 0 0 1 
23.95828766 -28.99331651 3.743599191 0 0 1 
23.95718683 -26.58916423 3.730929129 0 0 1 
23.95612098 -24.18508964 3.716148259 0 0 1 
23.95509595 -21.78109847 3.699106883 0 0 1 
23.95410464 -19.37716566 3.68049254 0 0 1 
23.95314848 -16.97329087 3.66031551 0 0 1 
23.95227735 -14.56960704 3.634942764 0 0 1 
23.95156936 -12.16632231 3.598688193 0 0 1 
23.9511675 -9.763813214 3.541273092 0 0 1 
23.95121618 -7.362459998 3.452318274 0 0 1 
23.95179742 -4.962481556 3.325847226 0 0 1 
23.95293531 -2.563945712 3.160006661 0 0 1 
23.95448176 -0.166470094 2.965231366 0 0 1 
23.95624516 2.230440554 2.755037354 0 0 1 
23.95803657 4.627271096 2.542657137 0 0 1 
23.95968023 7.024470464 2.34034331 0 0 1 
23.961052 9.422350865 2.156619575 0 0 1 
23.96205573 11.82115148 1.998017576 0 0 1 
23.96265596 14.22095555 1.86681391 0 0 1 
23.96284405 16.6217798 1.763469366 0 0 1 
23.96265738 19.02353235 1.685472746 0 0 1 
23.96214956 21.42608452 1.629306421 0 0 1 
23.96139217 23.82927147 1.590457753 0 0 1 
23.9604574 26.23292751 1.564390483 0 0 1 
23.95940079 28.63692192 1.547529343 0 0 1 
23.9582686 31.04114292 1.536819101 0 0 1 
23.95708635 33.44551952 1.530328943 0 0 1 
23.9558727 35.84999547 1.526532052 0 0 1 
23.95464027 38.25453182 1.524371564 0 0 1 
23.95340016 40.65909442 1.522921364 0 0 1 
23.95216378 43.06365064 1.521293651 0 0 1 
23.9509426 45.46816863 1.518621976 0 0 1 
23.94974801 47.87261836 1.514087271 0 0 1 
23.94858893 50.27697691 1.507064158 0 0 1 
23.94746393 52.68124902 1.497680019 0 0 1 
23.9463654 55.08545553 1.486501133 0 0 1 
23.9452712 57.4896544 1.475105956 0 0 1 
23.94415491 59.8939143 1.465366173 0 0 1 
23.94298792 62.29830853 1.459280113 0 0 1 
23.94174075 64.70291205 1.458893412 0 0 1 
23.94038259 67.10780198 1.466311629 0 0 1 
23.93888075 69.51305979 1.483760109 0 0 1 
23.93719627 71.91878292 1.513898387 0 0 1 
23.93529197 74.32506435 1.559264942 0 0 1 
23.93314489 76.7319613 1.621421631 0 0 1 
23.93074473 79.13949907 1.701059779 0 0 1 
23.92811862 81.54760872 1.796298815 0 0 1 
23.92530248 83.95619946 1.904661438 0 0 1 
23.92232826 86.36519203 2.023981633 0 0 1 
23.91922512 88.7745145 2.152292682 0 0 1 
23.91601473 91.18411298 2.288121535 0 0 1 
23.91271745 93.59393608 2.430066688 0 0 1 
23.9093561 96.00392336 2.57648552 0 0 1 
23.90595448 98.4140111 2.725649016 0 0 1 
23.90253766 100.824132 2.875730564 0 0 1 
23.89912571 103.2342329 3.025284417 0 0 1 
23.89571617 105.6443236 3.174570905 0 0 1 
23.89230296 108.0544241 3.324124513 0 0 1 
23.88888961 110.4645277 3.473750998 0 0 1 
23.88541491 112.9223292 3.626004906 0 0 1 
23.88153456 115.6762082 3.795808365 0 0 1 
23.87656472 119.2179283 4.012867101 0 0 1 
23.86870495 124.8419442 4.35544713 0 0 1 
26.24395759 -119.1033229 15.04197461 0 0 1 
26.25199157 -115.5714521 14.35249722 0 0 1 
26.25803767 -112.8351115 13.83063371 0 0 1 
26.26317485 -110.3967328 13.38291832 0 0 1 
26.26788605 -108.0073881 12.96653313 0 0 1 
26.27218496 -105.6169964 12.57867422 0 0 1 
26.27597673 -103.2253155 12.22594743 0 0 1 
26.27920273 -100.8321937 11.91249191 0 0 1 
26.2818707 -98.43764922 11.63782225 0 0 1 
26.28421844 -96.04228982 11.38536184 0 0 1 
26.28658314 -93.64697795 11.13159537 0 0 1 
26.28946947 -91.25300357 10.84135037 0 0 1 
26.29329831 -88.86144189 10.48531131 0 0 1 
26.29798401 -86.47207121 10.06953024 0 0 1 
26.30328383 -84.08426776 9.611024098 0 0 1 
26.30883558 -81.69710227 9.135139409 0 0 1 
26.31430019 -79.309705 8.665598402 0 0 1 
26.31955323 -76.92175667 8.211109838 0 0 1 
26.32454274 -74.53312412 7.775305107 0 0 1 
26.32929087 -72.14386541 7.356596984 0 0 1 
26.33383081 -69.7540673 6.952614322 0 0 1 
26.33816468 -67.3637375 6.563140819 0 0 1 
26.3422769 -64.9728383 6.189198278 0 0 1 
26.34611212 -62.58122914 5.834615539 0 0 1 
26.34960448 -60.18874212 5.503968152 0 0 1 
26.35268634 -57.79520395 5.201980766 0 0 1 
26.35529739 -55.40045995 4.932870759 0 0 1 
26.35740896 -53.00443653 4.698645549 0 0 1 
26.35900808 -50.60710046 4.500211033 0 0 1 
26.360113 -48.20849914 4.336275305 0 0 1 
26.36075076 -45.80870257 4.204929353 0 0 1 
26.36095169 -43.4077896 4.104022256 0 0 1 
26.36075449 -41.00586207 4.030775222 0 0 1 
26.36022833 -38.60310608 3.980105396 0 0 1 
26.35945645 -36.19974322 3.94596318 0 0 1 
26.35854787 -33.79605224 3.920747626 0 0 1 
26.35760829 -31.39229988 3.897189112 0 0 1 
26.35670325 -28.98864448 3.870977882 0 0 1 
26.35588128 -26.58519954 3.839028345 0 0 1 
26.35516303 -24.18200813 3.800173152 0 0 1 
26.35455787 -21.77908534 3.754007031 0 0 1 
26.3540579 -19.37640526 3.701239335 0 0 1 
26.35365832 -16.97395253 3.642289034 0 0 1 
26.35338481 -14.5717977 3.575224166 0 0 1 
26.35327862 -12.17005346 3.496962459 0 0 1 
26.35341269 -9.768914929 3.402172367 0 0 1 
26.35385509 -7.368564771 3.285863129 0 0 1 
26.35462078 -4.969048064 3.146798271 0 0 1 
26.35568922 -2.570317188 2.986272161 0 0 1 
26.35695011 -0.172088808 2.812016559 0 0 1 
26.35827536 2.225966789 2.633031077 0 0 1 
26.35955835 4.624121626 2.456744769 0 0 1 
26.36070483 7.022614002 2.289668267 0 0 1 
26.36164885 9.421604475 2.136193832 0 0 1 
26.36233698 11.82121997 1.999796397 0 0 1 
26.3627374 14.22153121 1.882415631 0 0 1 
26.36283124 16.62257943 1.785182751 0 0 1 
26.36262994 19.02434393 1.707525202 0 0 1 
26.36215755 21.42677779 1.648149844 0 0 1 
26.36145795 23.82979175 1.604600883 0 0 1 
26.36057957 26.23328469 1.574099542 0 0 1 
26.3595685 28.63715165 1.553770687 0 0 1 
26.3584661 31.04129356 1.540905662 0 0 1 
26.35729676 33.44563984 1.53358646 0 0 1 
26.35607926 35.85013081 1.530195091 0 0 1 
26.35482748 38.25472138 1.529509941 0 0 1 
26.3535546 40.6593698 1.530398826 0 0 1 
26.35227607 43.06403245 1.531675532 0 0 1 
26.3510086 45.46866424 1.532111468 0 0 1 
26.34977154 47.87321582 1.530360341 0 0 1 
26.34858165 50.27764551 1.525283578 0 0 1 
26.34744202 52.68194792 1.516731083 0 0 1 
26.34634704 55.08614012 1.505164215 0 0 1 
26.3452698 57.49029323 1.492519377 0 0 1 
26.34417795 59.89449178 1.481099006 0 0 1 
26.34303972 62.29881768 1.473135265 0 0 1 
26.34182365 64.70335132 1.4708202 0 0 1 
26.34049888 67.10816962 1.476254896 0 0 1 
26.33903288 69.51335258 1.491626067 0 0 1 
26.33738549 71.91899667 1.519575852 0 0 1 
26.33551665 74.32519776 1.562730638 0 0 1 
26.33339502 76.73203132 1.623156381 0 0 1 
26.33100211 79.1395422 1.702080517 0 0 1 
26.32836354 81.54766975 1.797839177 0 0 1 
26.3255156 83.95632749 1.908060796 0 0 1 
26.32249107 86.36543596 2.030569685 0 0 1 
26.319321 88.774919 2.163282324 0 0 1 
26.31603326 91.18470657 2.304286747 0 0 1 
26.31265705 93.594724 2.451547312 0 0 1 
26.30923092 96.00487051 2.602322391 0 0 1 
26.30579513 98.41504029 2.75373446 0 0 1 
26.3023871 100.8251351 2.903111156 0 0 1 
26.2990337 103.2350845 3.04853928 0 0 1 
26.29572088 105.6449272 3.191066631 0 0 1 
26.29242681 108.0547227 3.332302409 0 0 1 
26.28914207 110.4644969 3.472950723 0 0 1 
26.2857969 112.9219667 3.616161623 0 0 1 
26.28205396 115.6754939 3.776373671 0 0 1 
26.27724797 119.2167946 3.981996924 0 0 1 
26.26962897 124.8401943 4.307776637 0 0 1 
28.64552342 -119.1067492 14.94838966 0 0 1 
28.65302744 -115.5735117 14.296212 0 0 1 
28.65862999 -112.8360281 13.80554136 0 0 1 
28.66332519 -110.3965116 13.388875 0 0 1 
28.66754967 -108.005915 13.00664438 0 0 1 
28.6713231 -105.6141731 12.65562284 0 0 1 
28.67458578 -103.221134 12.33994774 0 0 1 
28.67737886 -100.8269022 12.05677246 0 0 1 
28.67978583 -98.43168994 11.80030933 0 0 1 
28.68195876 -96.03588501 11.55999253 0 0 1 
28.6841304 -93.64008123 11.31963323 0 0 1 
28.68678862 -91.24552479 11.04525586 0 0 1 
28.69034748 -88.85327289 10.70803757 0 0 1 
28.6946658 -86.46296228 10.31788934 0 0 1 
28.69945345 -84.07384842 9.895118898 0 0 1 
28.70438286 -81.68509046 9.462662063 0 0 1 
28.70919035 -79.29601129 9.038989139 0 0 1 
28.71390792 -76.90669206 8.621888303 0 0 1 
28.71864702 -74.51741795 8.203582243 0 0 1 
28.72353883 -72.12852607 7.774874647 0 0 1 
28.7286672 -69.74023289 7.329857377 0 0 1 
28.73390449 -67.35221431 6.877361129 0 0 1 
28.73905663 -64.96397611 6.430856815 0 0 1 
28.74387691 -62.57488809 6.007524625 0 0 1 
28.74813496 -60.18436129 5.62342219 0 0 1 
28.75172062 -57.79211294 5.286260297 0 0 1 
28.75457235 -55.39798447 5.000363751 0 0 1 
28.75670232 -53.00200656 4.764896081 0 0 1 
28.75815 -50.60428031 4.577100867 0 0 1 
28.75898982 -48.20499787 4.431737787 0 0 1 
28.75930651 -45.80437832 4.32283124 0 0 1 
28.75919061 -43.4026564 4.243978466 0 0 1 
28.75873657 -41.00007757 4.188483961 0 0 1 
28.7580487 -38.59691467 4.148902711 0 0 1 
28.75723074 -36.19343827 4.117852966 0 0 1 
28.75637399 -33.7898812 4.088986467 0 0 1 
28.75556011 -31.38644893 4.056703105 0 0 1 
28.75484439 -28.98327457 4.017380267 0 0 1 
28.75427317 -26.58046715 3.968052755 0 0 1 
28.75388368 -24.17811267 3.906382243 0 0 1 
28.75370716 -21.77628278 3.830420968 0 0 1 
28.75375981 -19.3750144 3.739163484 0 0 1 
28.75404744 -16.97432021 3.632263777 0 0 1 
28.75454884 -14.5741498 3.511088546 0 0 1 
28.75523208 -12.17442709 3.377703957 0 0 1 
28.75604938 -9.775036627 3.235247628 0 0 1 
28.75695151 -7.375859222 3.086960206 0 0 1 
28.75789981 -4.976801476 2.935381301 0 0 1 
28.75885681 -2.577771754 2.783005006 0 0 1 
28.75977868 -0.178658543 2.632875131 0 0 1 
28.76062438 2.220643159 2.487861098 0 0 1 
28.76137095 4.620190685 2.349537553 0 0 1 
28.76200011 7.020027363 2.219099468 0 0 1 
28.76249374 9.420189236 2.097547029 0 0 1 
28.76283223 11.82071379 1.985920305 0 0 1 
28.76298973 14.22165217 1.885629387 0 0 1 
28.76294257 16.62305487 1.798061441 0 0 1 
28.76268274 19.02495535 1.724117213 0 0 1 
28.76221054 21.42737293 1.664305911 0 0 1 
28.76154414 23.8302869 1.618038626 0 0 1 
28.7607084 26.23365825 1.584228752 0 0 1 
28.75973703 28.63741515 1.560903485 0 0 1 
28.75866317 31.04148044 1.545950909 0 0 1 
28.75750817 33.44578998 1.537628984 0 0 1 
28.75628966 35.8502851 1.534349442 0 0 1 
28.75502235 38.25491605 1.534764966 0 0 1 
28.75372115 40.65963429 1.537560784 0 0 1 
28.75240498 43.06438699 1.541298927 0 0 1 
